284.79 294.4 305.45 317.94 331.77 346.93 347.34 333.01 317.58 301.05 283.17 263.93 252.88 250.02 245.24 238.54 234.52 233.19 233.3 234.84 237.69 241.83 245.47 248.61 251.02 252.71 258.97 269.82 281.22 293.18 305.59 318.46 347.66 393.2 430.5 459.57 498.07 546 560.61 541.91 483.84 386.4 325.46 301.02 291.72 297.57 321.46 363.38 449.51 579.85 610.42 541.21 479.61 425.62 391.14 376.17 359.51 341.17 327.11 317.35 311.22 308.73 309.13 312.43 317.01 322.86 327.51 330.98 332.33 331.57 332.82 336.08 347.66 367.53 375.31 370.97 359.64 341.33 344.94 370.5 384.89 388.13 384.69 374.58 359.08 338.18 320.64 306.44 297.96 295.2 292.69 290.42 290.46 292.81 291.6 286.84 283.77 282.39 281.94 282.44 281.99 280.58 277.85 273.8 271.16 269.94 268.99 268.32 267.22 265.69 264.08 262.41 261 259.86 258.73 257.62 257.52 258.42 258.04 256.38 255.35 254.94 254.91 255.26 256.09 257.42 256.99 254.82 254.65 256.47 257.15 256.7 256.43 256.34 256.76 257.71 259.13 261.03 262.85 264.58 267.52 271.65 273.8 273.98 276.79 282.22 283.76 281.42 285.26 295.29 307.71 322.52 336.2 348.73 353.29 349.88 342.94 332.49 319.25 303.22 291.33 283.59 278.67 276.57 274.52 272.52 267.84 260.46 256.66 256.43 258.07 261.58 263.65 264.27 264.62 264.67 265.31 266.52 265.76 263.03 265.43 272.96 277.13 277.92 279.51 281.89 283.28 283.65 283.48 282.74 283.27 285.07 294.48 311.51 315.76 307.23 309.08 321.32 332.25 341.86 348.58 352.4 355.14 356.81 360.43 366.01 367.72 365.58 364.83 365.47 365.06 363.59 362.23 360.99 360.58 360.98 360.98 360.56 359.07 356.51 360.53 371.14 372.33 364.1 362.94 368.84 378.07 390.61 409.74 435.44 431.7 398.5 376.45 365.56 357.22 351.45 350.4 354.1 352.48 345.56 341.42 340.05 340 341.28 342.11 342.5 341.3 338.51 337.26 337.55 337.22 336.28 335.33 334.37 332.46 329.6 327.74 326.89 327.59 329.84 330.17 328.6 326.99 325.36 324.68 324.95 325.25 325.57 326.74 328.76 330.1 330.77 331.47 332.22 332.57 332.51 332.65 332.97 334.18 336.27 338.39 340.53 341.79 342.18 341.91 340.96 340.28 339.87 339.14 338.08 339.05 342.04 344.56 346.6 348.16 349.24 350.14 350.85 351.47 351.98 351.83 351 350.89 351.5 351.81 351.84 352.9 354.99 356.32 356.88 357.92 359.42 360.94 362.47 367.42 375.76 379.83 379.64 375.87 368.53 365.04 365.38 367.56 371.57 381.7 397.94 419.53 446.47 457.58 452.87 447.37 441.08 433.89 425.78 418.75 412.79 407.44 402.7 403.29 409.2 407.25 397.44 395.41 401.15 415.49 438.44 438.13 414.57 401.69 399.47 395.14 388.69 384.15 381.53 383.27 389.39 393.57 395.81 401.98 412.1 409.55 394.33 383.9 378.24 374.79 373.53 373.17 373.69 373.84 373.62 372.73 371.19 371.09 372.41 377 384.88 388.64 388.29 389.03 390.86 391.85 392 392.16 392.31 394.78 399.55 401.01 399.17 399.51 402.03 402.32 400.38 398.47 396.6 395.77 395.97 396.23 396.55 393.66 387.56 384.83 385.48 385.39 384.54 384.43 385.04 384.92 384.07 384.39 385.87 390.03 396.87 402.71 407.55 409.73 409.26 411.95 417.81 424.89 433.21 438.38 440.4 441.67 442.2 445.39 451.25 459.91 471.37 486.15 504.24 515.79 520.79 516.76 503.7 494.88 490.3 487.6 486.77 484.6 481.07 477.33 473.38 467.43 459.46 456.46 458.43 453.41 441.43 436.16 437.63 435.43 429.55 425.63 423.65 425.72 431.84 439.44 448.52 444.15 426.34 418.39 420.32 423.07 426.64 428 427.14 425.57 423.29 422.37 422.82 425.34 429.93 428.71 421.69 418.46 419.04 422.69 429.42 432.25 431.19 429.32 426.66 425.31 425.29 425.87 427.04 428.11 429.1 427.18 422.36 422.75 428.36 429.34 425.7 421.73 417.42 418.49 424.92 423.96 415.62 414.59 420.86 423.93 423.8 430.26 443.3 447.42 442.62 437.7 432.68 429.12 427.01 424.02 420.15 423.16 433.03 439.96 443.93 446.04 446.28 457.92 480.94 496.53 504.69 510.03 512.55 526.79
273.97 297.22 325.92 360.07 373.78 367.03 357.23 344.35 327.63 307.09 286.77 266.69 251.97 242.62 237.81 237.55 236.09 233.43 232.91 234.53 237.48 241.75 245.73 249.42 253.12 256.84 264.74 276.83 291.36 308.34 326.02 344.39 376.7 422.96 457.14 479.25 484.6 473.2 464.36 458.08 420.68 352.18 309.47 292.55 291.24 305.53 337.83 388.12 474.95 598.3 608.15 504.5 437.41 406.89 384.31 369.67 354.42 338.56 325.92 316.5 309.63 305.31 303.15 303.15 304.7 307.79 310.77 313.63 314.88 314.53 318.1 325.6 339.08 358.54 366.63 363.36 353 335.57 338.69 362.36 372.68 369.65 360.04 343.85 330.44 319.81 309.26 298.78 292.78 291.24 289.91 288.79 288.48 288.98 287.51 284.07 281.54 279.94 279.32 279.71 280.21 280.83 279.1 275.02 272.01 270.07 268.56 267.46 266.03 264.26 263.04 262.35 261.64 260.9 259.62 257.8 257.07 257.43 256.88 255.42 255.51 257.15 256.9 254.78 254.3 255.44 255.96 255.86 256.09 256.66 256.51 255.64 255.52 256.13 256.65 257.05 258.14 259.91 261.53 262.99 266.05 270.7 273.14 273.35 274.84 277.62 277.7 275.11 278.59 288.12 301.44 318.54 333.05 344.97 349.43 346.44 339.71 329.24 316.67 301.97 290.56 282.43 277.64 276.18 273.76 270.38 265.72 259.79 256.62 256.2 257.28 259.85 261.86 263.28 263.68 263.06 263.43 264.8 263.93 260.82 263.2 271.05 275.63 276.92 278.37 279.96 280.55 280.13 279.84 279.67 281.12 284.19 293.66 309.51 314.73 309.31 313.84 328.31 339.03 346 350.81 353.47 356.11 358.73 362.6 367.73 368.92 366.17 364.21 363.03 361.62 359.97 358.41 356.94 357.43 359.89 360.66 359.72 358.04 355.63 359.41 369.41 369.34 359.21 355.31 357.66 363.45 372.7 389.29 413.22 412.3 386.55 367.39 354.83 347.06 344.07 345.52 351.39 350.41 342.59 338.68 338.66 339.58 341.44 342.01 341.32 339.56 336.74 335.03 334.43 334.28 334.58 334.03 332.63 330.48 327.56 326.05 325.94 325.96 326.13 325.4 323.77 322.96 322.97 323.64 324.97 324.8 323.14 323.71 326.49 328.23 328.93 329.37 329.56 329.83 330.19 330.8 331.67 332.76 334.09 335.73 337.68 338.6 338.49 338.3 338.03 337.56 336.89 336.53 336.46 338.54 342.76 345.09 345.53 346.64 348.4 349.19 348.98 349.14 349.65 350.14 350.62 350.73 350.45 350.23 350.07 351.01 353.06 354.47 355.23 354.87 353.37 356.22 363.4 370.13 376.41 380.96 383.77 382.21 376.28 372.4 370.56 371.72 375.87 385.77 401.42 422.41 448.74 456.65 446.12 439.8 437.68 433.65 427.73 420.26 411.26 406.25 405.24 404.31 403.45 398.97 390.87 391.65 401.33 412.44 424.97 421.8 402.92 392.73 391.22 388.88 385.7 383.42 382.05 384.49 390.73 395.97 400.2 404.84 409.9 405.62 392 382.51 377.14 373.94 372.9 372.63 373.11 373.14 372.72 372.07 371.19 371.3 372.39 376.12 382.5 385.76 385.92 386.68 388.05 389.12 389.91 389.78 388.74 390.82 396.01 397.27 394.62 395.2 399.01 399.42 396.41 394.63 394.08 393.63 393.29 393.2 393.38 391.46 387.44 385.36 385.23 384.95 384.5 384.51 384.98 384.99 384.53 383.97 383.32 384.71 388.15 393.14 399.68 403.39 404.26 406.67 410.62 415.8 422.23 427.43 431.42 433.8 434.58 436.11 438.4 444.92 455.69 474.1 500.16 515.1 518.92 511.3 492.25 481.65 479.51 478.27 477.95 476.43 473.73 471.57 469.96 464.85 456.25 451.6 450.88 446.27 437.75 432.3 429.94 425.76 419.76 417.48 418.91 423.07 429.94 438.49 448.73 444.32 425.28 416.64 418.41 421.26 425.19 426.73 425.89 425.12 424.45 423.55 422.42 424.14 428.69 427.97 421.96 418.39 417.23 419.19 424.25 426.72 426.6 425.87 424.52 425.39 428.47 432.22 436.65 439.06 439.44 437.49 433.2 432.81 436.33 435.8 431.24 426.6 421.89 423.27 430.74 430.86 423.6 423.84 431.57 433.76 430.39 434.44 445.92 451.59 451.43 448.46 442.69 438.25 435.14 431.49 427.3 424.77 423.89 428.72 439.25 449.03 458.06 472.89 493.52 507.07 513.52 520.82 528.98 540.57
270.65 313.41 361.06 413.58 412.56 358 332.69 336.63 322.78 291.14 270.29 260.23 250.79 241.97 238.67 240.89 240.38 237.13 235.67 236 237.28 239.53 242.22 245.35 252.99 265.13 277.99 291.57 309.39 331.47 357.48 387.42 417.86 448.81 468.67 477.45 455.42 402.57 371.52 362.25 341.75 310.03 291.14 285.07 296.35 324.97 368.59 427.22 494.64 570.86 559.93 461.85 404.99 389.35 372.33 353.93 341.26 334.31 325.38 314.47 307.32 303.92 301.98 301.5 301.77 302.78 304.5 306.93 308.46 309.08 312.01 317.24 325.21 335.92 340.75 339.69 334.13 324.08 324.82 336.37 338.99 332.68 326.14 319.38 312.96 306.9 301.31 296.18 291.63 287.68 285.59 285.37 284.17 282 281.63 283.05 282.9 281.16 278.98 276.37 275.34 275.89 275.82 275.14 273.73 271.61 269.12 266.26 264.03 262.44 261.94 262.52 263.16 263.85 262.75 259.86 258.37 258.29 257.94 257.3 257.74 259.26 257.79 253.34 251.3 251.66 253.89 258 259.46 258.25 256.66 254.68 254.71 256.74 257.39 256.65 257.2 259.05 260.13 260.43 262.89 267.52 270.94 273.16 272.84 269.98 269.8 272.3 275.25 278.64 288.03 303.41 314.44 321.12 327.15 332.52 328.64 315.5 304.96 297.01 290.42 285.2 281.28 278.66 274.03 267.41 262.49 259.27 257.24 256.42 256.64 257.89 259.52 261.51 261.72 260.15 259.54 259.9 260.04 259.95 262.26 266.99 270.72 273.43 275.58 277.17 277.23 275.75 275.8 277.37 283.37 293.79 298.59 297.77 300.17 305.8 316.19 331.35 339.88 341.8 347.2 356.1 361.78 364.25 366.45 368.38 367.87 364.92 362.01 359.14 356.45 353.94 352.96 353.51 355.36 358.53 359.08 357.02 356.34 357.04 357.6 358.04 355.76 350.75 349.29 351.39 354.95 359.97 366.13 373.43 374.5 369.36 359.95 346.29 340.11 341.42 345.59 352.62 350.57 339.45 335.47 338.64 341.21 343.16 342.52 339.3 337.72 337.76 336.57 334.13 332.63 332.09 331.08 329.61 328.16 326.74 326.14 326.36 325.77 324.39 322.76 320.91 320.63 321.95 322.83 323.29 322.15 319.42 319.57 322.61 324.68 325.79 326.02 325.35 325.5 326.47 327.95 329.94 330.67 330.16 330.44 331.5 331.74 331.14 332.11 334.65 336.33 337.15 338.27 339.69 341.57 343.9 344.32 342.82 343.11 345.19 345.96 345.41 345.28 345.58 346.56 348.23 348.59 347.64 347.12 347.01 347.31 348.02 348.63 349.12 350.97 354.16 360.81 370.91 375.82 375.53 377 380.24 383.25 386.03 385.65 382.11 382.16 385.81 391.17 398.23 412.98 435.41 444.47 440.15 435.99 432 428.97 426.89 421.28 412.12 409.39 413.08 410.52 401.72 394.6 389.14 390.72 399.33 401.41 396.95 393.62 391.42 389.66 388.33 387.87 388.29 387.88 386.63 386.01 386.04 390.62 399.76 400.51 392.86 386.85 382.48 378.73 375.61 373.87 373.51 373.04 372.45 371.92 371.46 371.64 372.47 372.49 371.71 372.88 375.99 378.63 380.82 382.6 383.96 385.13 386.1 386.84 387.34 389.29 392.69 394.13 393.62 393.88 394.91 394.71 393.29 392.01 390.87 390.79 391.76 391.32 389.45 388.19 387.55 386.35 384.59 383.88 384.2 384.53 384.86 384.84 384.47 384.19 383.99 385 387.23 390.94 396.15 400.11 402.83 406.4 410.84 415.41 420.12 423.88 426.68 428.29 428.69 429.83 431.7 435.61 441.55 460.95 493.81 510.25 510.28 501.33 483.39 473.11 470.47 469 468.69 467.81 466.35 465.45 465.08 461.47 454.61 447.16 439.09 433.02 428.94 423.61 417.05 412.42 409.73 408.63 409.15 410.49 412.67 416.64 422.4 422.37 416.53 414.68 416.81 418.69 420.33 422.39 424.88 426.99 428.73 428.78 427.16 426.39 426.46 425.2 422.59 420.39 418.57 419.01 421.69 423.74 425.15 425.35 424.31 426.6 432.21 439.76 449.24 453.3 451.96 448.73 443.62 440.35 438.91 437.8 437.03 432.98 425.65 426.87 436.64 437.65 429.89 432.42 445.25 448.22 441.34 438.57 439.9 445.22 454.51 455.23 447.39 442.29 439.92 439.36 440.61 436.36 426.6 433.04 455.68 474.73 490.17 499.66 503.19 505.45 506.44 520.27 546.94 558.41
273.59 303.16 345.31 400.05 401.2 348.77 322.87 323.49 308.27 277.21 258.88 253.29 246.93 239.8 237.46 239.89 240.17 238.3 236.71 235.4 236.02 238.58 241.78 245.6 255.44 271.3 289.01 308.57 328.21 347.91 391.87 460.06 498.69 507.74 495.89 463.13 416.08 354.74 318.86 308.46 298.49 288.97 284.04 283.71 306.85 353.46 416.07 494.66 537.77 545.41 509.26 429.31 383.13 370.72 356.37 340.07 330.35 327.2 320.07 308.94 302.33 300.23 298.81 298.07 298.16 299.09 300 300.87 302.39 304.56 306.78 309.07 312.42 316.85 319.42 320.15 318.91 315.71 315.95 319.63 318.09 311.32 306.86 304.71 302.16 299.21 296.37 293.62 289.93 285.3 283.08 283.26 281.71 278.43 277.65 279.38 280.38 280.66 278.85 274.96 273.01 273.01 273.19 273.54 273.56 273.23 270.7 265.95 262.88 261.49 261.02 261.47 262.13 263 262.7 261.23 260.23 259.69 259.23 258.85 259.49 261.15 259.29 253.92 251.37 251.64 253.55 257.13 258.28 257.02 255.73 254.42 254.46 255.86 256.93 257.68 258.88 260.51 261.24 261.07 262.9 266.73 269.81 272.15 270.37 264.46 263.71 268.13 272.67 277.36 286.17 299.12 307.07 310.04 316.79 327.34 328.42 320.04 310.14 298.72 290.85 286.53 282.58 278.99 274.46 268.99 263.85 259.04 256.61 256.57 256.42 256.15 257.27 259.77 259.71 257.11 256.27 257.22 258.22 259.28 260.93 263.18 266.21 270.02 272.44 273.47 273.46 272.41 273.58 276.97 285.97 300.59 303.14 293.62 294.03 304.37 316.11 329.26 337.14 339.77 346.55 357.49 363.89 365.76 366.41 365.85 364.67 362.87 360.23 356.76 353.26 349.75 348.91 350.75 353.73 357.86 358.13 354.54 353.53 355.09 353.15 347.71 344.71 344.15 345.28 348.12 349.87 350.54 350.36 349.32 350.04 352.52 349.19 340.05 338.53 344.61 349.79 354.05 349.79 337.01 333.18 338.31 341.68 343.31 342.24 338.47 337.05 337.98 337.24 334.83 332.72 330.88 329.13 327.45 326.62 326.64 326.27 325.53 324.52 323.25 321.68 319.8 320.05 322.44 322.62 320.58 319.49 319.33 320.37 322.61 324.16 325.05 325.3 324.91 325.28 326.4 327.66 329.06 329.71 329.61 329.97 330.78 330.7 329.73 330.69 333.59 336.18 338.48 340.08 340.98 342.59 344.91 344.34 340.88 340.51 343.22 344.3 343.75 343.7 344.16 345.08 346.46 346.72 345.86 345.47 345.55 345.64 345.72 346.07 346.69 349.67 355.02 363.5 375.11 377.58 370.92 370.5 376.32 382.08 387.78 389.77 388.04 388.87 392.26 395.49 398.56 410.05 429.96 440.77 442.5 440.92 436.05 431.24 426.48 421.48 416.24 415.13 418.15 413.81 402.1 394.41 390.74 391.62 397.06 395.78 387.8 385.02 387.44 389.23 390.37 392.24 394.82 397.03 398.89 399.82 399.82 401.08 403.58 398.7 386.42 379.79 378.83 378.02 377.38 376.52 375.45 374.21 372.8 371.82 371.26 371.44 372.36 372.39 371.52 371.5 372.34 374.06 376.66 378.71 380.21 381.55 382.72 384.75 387.62 389.81 391.32 392.41 393.09 393.01 392.17 391.21 390.12 389.33 388.84 388.74 389.03 388.39 386.84 386.44 387.2 387.24 386.58 386.36 386.59 386.21 385.24 384.78 384.84 385.36 386.36 387.62 389.17 391.67 395.14 398.72 402.42 406.23 410.15 413.79 417.17 419.66 421.27 421.97 421.77 423.4 426.86 431.1 436.12 454.55 486.39 500.86 497.98 488.85 473.46 464.7 462.56 461.81 462.44 462.29 461.35 460.13 458.6 455.55 450.97 443.78 434 427.63 424.68 418.84 410.11 405.47 404.92 404.67 404.72 404.59 404.3 405.76 408.96 410.77 411.16 412.67 415.29 416.61 416.63 419.39 424.87 428.97 431.68 431.11 427.27 424.97 424.19 423.39 422.55 421.13 419.12 418.65 419.72 421.38 423.62 424.45 423.87 427.74 436.04 446.08 457.85 463.59 463.32 460.66 455.6 450.1 444.15 440.93 440.45 436.22 428.24 428.81 437.93 439.38 433.17 438.68 455.91 459.3 448.85 443.47 443.15 447.91 457.75 460.93 457.46 453.88 450.21 449.21 450.89 446.48 435.96 440.07 458.8 475.57 490.37 498.09 498.74 503.7 513 526.5 544.22 551.25
282.78 266.45 278.68 319.48 339.7 339.34 327.74 304.91 284.09 265.3 252.55 245.85 240.36 236.11 234.17 234.55 235.47 236.93 236.02 232.73 233.69 238.9 244.39 250.16 260.47 275.33 297.78 327.84 347.8 357.66 429.17 562.33 619.19 599.76 538.79 436.3 366.6 329.7 306.4 296.7 290.9 288.99 288.18 288.45 322.73 391.02 480.26 590.44 604.34 521.97 456.15 406.89 371.85 351.02 336.44 328.1 321.7 317.23 309.97 299.91 294.66 294.23 293.62 292.84 293.87 296.72 297.25 295.45 296.68 300.95 302.42 301.09 300.72 301.31 302.65 304.73 307.33 310.46 312.06 312.14 309.97 305.57 302.2 299.86 298.04 296.74 294.43 291.1 287.67 284.11 282.38 282.48 281.11 278.28 275.59 273.04 273.99 278.44 278.94 275.49 273.25 272.21 271.2 270.24 271.48 274.93 273.28 266.53 262.57 261.41 260.28 259.18 258.54 258.36 259.49 261.93 262.64 261.62 260.77 260.08 260.77 262.82 261.41 256.52 254.51 255.38 254.95 253.23 252.57 252.95 253.71 254.84 254.76 253.48 255.28 260.16 263.17 264.29 264.87 264.91 266.06 268.33 269.76 270.34 267.44 261.06 259.45 262.59 270.86 284.26 295.87 305.68 310.96 311.7 318.35 330.89 339.05 342.84 332.19 307.11 291.86 286.42 281.53 277.18 275.05 275.13 269.81 259.11 254.72 256.64 256.61 254.62 255.1 258.05 257.66 253.92 253.62 256.75 258.48 258.82 259.21 259.63 262.13 266.7 268.94 268.85 269.25 270.12 273.2 278.47 288.94 304.59 307.3 297.07 296.31 305.01 313.58 322.03 330.81 339.91 348.85 357.63 362.43 363.26 362.5 360.13 359.3 360.01 358.86 355.87 352.05 347.4 346.26 348.65 352.52 357.88 357.8 352.28 349.62 349.79 346.06 338.41 336.19 339.4 343.29 347.84 348.22 344.42 341.98 340.91 338.93 336.05 335.11 336.13 342.31 353.67 358.12 355.67 348.06 335.29 331.82 337.65 341.01 341.9 341.18 338.83 337.56 337.38 337.04 336.55 334.52 330.96 328.17 326.15 325.85 327.26 326.46 323.45 322.21 322.73 322.14 320.45 321.22 324.46 323 316.84 316.8 322.88 326.11 326.49 326.68 326.7 327.22 328.26 329.17 329.97 329.93 329.04 329.88 332.44 334.31 335.51 335.49 334.25 334.04 334.84 337.12 340.88 341.95 340.32 341.6 345.77 345.15 339.72 338.83 342.49 344.21 344.01 344.39 345.37 345.68 345.33 345.14 345.1 345.29 345.7 345.99 346.16 346.81 347.93 350.98 355.95 364.3 376.01 375.44 362.59 361.45 372.02 378.72 381.55 384.77 388.36 391.85 395.23 398.75 402.4 413.62 432.39 445.57 453.16 454.59 449.83 440.47 426.5 420.88 423.61 423.47 420.45 414.15 404.56 398.4 395.65 394.36 394.5 395.56 397.53 396 390.99 391.44 397.37 401.98 405.27 410.88 418.82 425.89 432.09 427.35 411.66 399.4 390.57 384.45 381.05 380.38 382.44 381.88 378.7 376.12 374.16 372.83 372.13 371.48 370.86 370.98 371.82 372.01 371.55 372.03 373.45 375.04 376.79 378.37 379.78 383.52 389.6 392.4 391.91 392.11 393.02 392.59 390.81 388.92 386.9 386.59 388 387.5 385.09 384.44 385.55 386.19 386.37 388.04 391.18 392.39 391.65 389.57 386.13 384.82 385.63 387.5 390.42 392.58 393.98 395.33 396.64 399.21 403.05 406.16 408.55 410.96 413.37 414.78 415.17 414.84 413.8 416.81 423.85 431.39 439.4 454.9 477.9 486.94 482.02 473.86 462.44 456.41 455.77 456.7 459.19 459.87 458.73 455.62 450.53 447.1 445.31 441.48 435.61 430.11 424.98 417.98 409.11 404.9 405.35 405.58 405.62 405.36 404.82 405.84 408.4 409.51 409.16 410.61 413.85 415.02 414.1 417.72 425.87 431.07 433.3 430.52 422.74 419.86 421.89 422.55 421.84 420.62 418.86 418.11 418.35 419.65 422.01 423.19 423.2 428.79 439.95 451.18 462.47 469.93 473.54 473.28 469.14 462.07 452.06 445.2 441.48 436.3 429.66 429.09 434.6 436.06 433.46 442.63 463.56 466.99 452.94 449.17 455.68 459.67 461.14 465.55 472.88 473.03 466 461.03 458.14 455.13 451.99 449.81 448.61 451.56 458.65 468.18 480.15 501.82 533.19 539.52 520.83 519.09
313.15 265.34 252.37 274.23 298.14 324.09 321.21 289.48 267.09 254.03 244.82 239.48 235.81 233.81 232.56 232.06 234.06 238.56 239.66 237.33 240.03 247.76 255.32 262.72 275.59 293.91 330.29 384.72 419.36 434.21 481.86 562.3 589.06 562.14 495.24 388.35 326.2 308.78 296.34 288.88 286.91 290.44 294.7 299.7 340.4 416.79 510.58 621.76 616.59 495.08 418.89 388.02 360.8 337.22 322.91 317.87 312.95 308.16 301.82 293.94 290.37 291.11 290.81 289.49 290.55 293.99 294.59 292.33 292.56 295.26 295.85 294.33 293.82 294.33 295.31 296.76 299.87 304.63 306.98 306.92 304.9 300.92 297.97 296.06 294.65 293.77 291.06 286.54 283.87 283.07 281.73 279.85 278.7 278.27 276.28 272.71 272.97 277.07 277.76 275.06 272.68 270.64 268.67 266.78 267.67 271.32 270.15 264.16 260.64 259.59 258.54 257.48 256.56 255.78 257.37 261.33 262.74 261.62 260.72 260.04 260.43 261.88 261.22 258.45 257.02 256.94 255.35 252.26 250.68 250.63 251.56 253.47 253.94 252.98 254.89 259.67 262.26 262.66 263.33 264.26 265.15 266 266.49 266.63 263.89 258.27 256.95 259.94 269.62 286 297.83 305.11 309.82 311.95 318.32 328.94 337.07 342.7 333.51 309.49 293.06 284.22 278.05 274.55 273.22 274.06 269.1 258.34 254.05 256.21 256.06 253.6 253.78 256.6 256.25 252.75 252.56 255.67 257.45 257.89 258.04 257.89 259.94 264.2 266.13 265.73 267 269.96 274.3 280.02 289.73 303.42 306.76 299.73 300.07 307.8 315.26 322.47 331.26 341.62 350.27 357.2 359.74 357.91 355.5 352.51 352.31 354.91 354.91 352.32 348.8 344.35 343.23 345.44 349.1 354.23 353.54 347.04 343.63 343.29 340.77 336.07 335.94 340.38 344.81 349.24 347.65 340.03 335.43 333.83 331.04 327.05 327.3 331.79 339.33 349.93 353.36 349.63 342.95 333.32 330.73 335.18 338.21 339.8 339.81 338.24 336.81 335.53 335.02 335.29 333.75 330.4 327.66 325.51 325.24 326.85 326.11 323.03 322.05 323.18 322.7 320.58 320.55 322.58 321.05 315.97 317.2 324.76 328.44 328.24 327.93 327.53 328.15 329.79 330.7 330.85 330.29 329.01 330.05 333.42 335.48 336.24 336.14 335.17 334.99 335.58 337.81 341.69 343.92 344.52 345.57 347.06 345.17 339.87 338.62 341.41 342.82 342.87 343.34 344.21 344.4 343.91 343.93 344.46 345.02 345.62 346.21 346.78 347.65 348.82 351.33 355.19 361.56 370.46 369.4 358.4 358.06 368.39 374.5 376.4 379.59 384.07 388.29 392.24 396.95 402.42 413.73 430.86 444.6 454.95 458.53 455.33 445.68 429.57 424.2 429.58 429.16 422.95 417.25 412.07 406.83 401.55 397.42 394.43 395.98 402.07 401.44 394.11 396.88 409.75 417.09 418.87 423.46 430.84 438.16 445.4 438.3 416.86 403.61 398.55 395.02 393 391.86 391.59 387.86 380.66 376.26 374.65 373.31 372.26 371.07 369.75 369.54 370.42 371.79 373.64 375.37 377.01 377.99 378.33 379.41 381.23 384.82 390.18 391.74 389.5 388.82 389.7 389.49 388.19 387.4 387.12 387.7 389.15 388.66 386.25 386.18 388.46 389.54 389.44 391.15 394.66 396.02 395.22 392.97 389.26 387.58 387.91 389.34 391.86 393.88 395.39 396.3 396.59 398.49 402 404.54 406.13 407.63 409.05 409.76 409.75 409.35 408.58 411.71 418.75 425.87 433.08 445.26 462.4 468.04 462.17 456.16 450.01 447.21 447.77 451.55 458.54 469.41 484.16 483.91 468.67 455.66 444.89 437.36 433.06 427.32 420.12 413.51 407.49 404.82 405.52 405.79 405.64 406.05 407 407.84 408.56 408.45 407.49 408.53 411.57 412.59 411.59 414.66 421.77 426.41 428.57 426.01 418.72 416.95 420.7 422.18 421.37 419.88 417.71 416.93 417.55 419.38 422.42 423.69 423.19 427.97 438.04 448.55 459.51 474.94 494.85 502.88 499.04 487.28 467.61 453.29 444.32 437.29 432.18 431.46 435.14 435.91 433.78 442.99 463.54 469.22 460.04 459.17 466.6 469 466.37 470.8 482.3 484.41 477.15 470.34 463.99 461.46 462.76 457.36 445.24 441.93 447.44 457.33 471.61 495.64 529.43 531.37 501.43 499.36
364.68 299.83 266.37 264.3 276.52 303.03 303.26 277.22 257.27 243.39 235.69 234.18 233.25 232.91 232.63 232.42 235.94 243.2 247.62 249.21 255.06 265.15 274.56 283.28 300.78 327.06 386.54 479.21 542.87 577.54 549.91 459.96 408.29 394.88 365.22 319.3 294.88 291.98 288.68 284.99 286.53 293.29 303.6 317.44 359.84 430.79 507.05 588.61 574.51 464.75 397.48 372.7 349.98 329.32 315.8 309.39 304.12 299.98 295.62 291.05 289.46 290.85 290.37 288.02 288.2 290.92 292.03 291.52 290.01 287.5 287.09 288.79 291.72 295.9 297.41 296.25 296.52 298.22 300.71 303.98 302.87 297.38 294.19 293.29 292 290.31 286.28 279.91 278.55 282.18 281.13 275.39 274.49 278.41 279.71 278.38 277.32 276.54 275.31 273.64 271.31 268.31 265.59 263.18 262.11 262.4 261.31 258.85 257.09 256.02 255.78 256.36 256.19 255.27 256.34 259.42 260.54 259.69 259.1 258.74 258.48 258.32 258.73 259.71 258.91 256.32 254.75 254.2 252.63 250.04 249.26 250.3 252 254.37 255.77 256.19 256.15 255.64 256.63 259.14 260.17 259.73 260.01 261.03 259.72 256.08 256.23 260.17 268.95 282.57 292.05 297.4 303.64 310.78 316.73 321.5 322.46 319.63 314.09 305.85 294.46 279.93 272.14 271.1 268.99 265.8 261.72 256.75 254.59 255.26 254.75 253.07 253.29 255.4 255.5 253.58 253.08 254 255.13 256.49 257.43 257.96 259.66 262.53 264 264.08 266.73 271.93 276.89 281.61 288.34 297.08 301.49 301.58 305.32 312.73 321.14 330.58 338.5 344.9 350.8 356.19 355.83 349.7 345.42 342.98 343.7 347.57 348.38 346.12 343.53 340.6 339.79 341.1 343.47 346.9 345.35 338.82 335.56 335.57 337.28 340.69 343.95 347.07 349.87 352.33 348.17 337.39 330.7 328.1 326.38 325.54 325.76 327.04 329.58 333.39 335.51 335.92 334.46 331.1 329.92 330.91 333.27 337 338.14 336.69 334.79 332.44 331.19 331.04 330.38 329.21 327.59 325.52 324.79 325.41 325.23 324.25 324.04 324.61 323.34 320.21 318.03 316.8 316.77 317.97 320.7 324.98 327.36 327.85 327.91 327.54 328.08 329.53 329.85 329.04 328.74 328.96 330.23 332.56 333.47 332.97 332.64 332.48 333.53 335.8 338.26 340.9 346.01 353.58 354.51 348.78 344.39 341.35 339.88 339.97 340.13 340.35 340.54 340.69 341.25 342.21 343.11 343.94 344.68 345.32 346.29 347.59 348.61 349.35 350.72 352.73 355.31 358.46 359.48 358.35 360.33 365.44 369.44 372.33 374.24 375.16 378.17 383.27 390.08 398.61 410.37 425.37 437.87 447.85 452.74 452.55 446.86 435.68 431.44 434.14 432.21 425.65 423.11 424.6 419.71 408.43 400.81 396.84 397.04 401.42 401.34 396.81 405.54 427.53 437.56 435.63 434.76 434.95 436.61 439.73 433.93 419.19 411.34 410.36 411.48 414.68 412.47 404.83 394.46 381.35 374.62 374.27 373.28 371.64 370.22 369.03 368.07 367.34 370.85 378.61 384.1 387.33 387.57 384.82 384.67 387.09 388.65 389.35 387.82 384.09 382.51 383.11 383.7 384.29 386.65 390.77 392.64 392.27 392.23 392.52 393.63 395.56 396.48 396.4 396.58 397.02 397.26 397.29 396.41 394.64 393.07 391.69 390.89 390.68 391.52 393.42 394.57 394.99 396.56 399.28 401.39 402.88 403.82 404.21 404.61 405.01 405.5 406.09 408.1 411.53 414.56 417.18 425.63 439.89 444.16 438.44 435.76 436.15 437.08 438.56 446.35 460.47 490.9 537.64 545.01 513.01 481.25 449.73 431.43 426.37 419.26 410.11 405.43 405.22 405.22 405.43 405.29 404.8 406.65 410.84 411.77 409.44 407.57 406.15 406.44 408.44 409.33 409.11 410.19 412.57 415 417.49 417.56 415.2 416.23 420.65 422.28 421.13 418.92 415.66 415.12 417.31 420.56 424.86 425.96 423.84 425.29 430.29 438.18 448.95 478.64 527.25 549.47 545.31 525.75 490.79 465.2 448.97 439.17 435.79 435.91 439.53 438.93 434.12 439.76 455.85 465.99 470.17 473.48 475.94 475.92 473.44 476.7 485.7 488.03 483.67 477.14 468.44 465.49 468.3 462.7 448.69 446.7 456.74 465.54 473.09 485.16 501.74 502.04 486.04 492.06
355.99 309.59 278.83 263.71 264.09 279.97 279.32 262.14 247.95 236.78 231.32 231.57 232.06 232.77 233.66 234.74 238.84 245.96 252.08 257.22 265.81 277.88 288.61 298.01 319.32 352.54 425.61 538.55 597.46 602.36 534.83 394.88 318.82 306.66 294.54 282.45 280.94 290.01 296.02 298.98 298.49 294.57 303.26 324.58 372.79 447.9 502.02 535.17 511.24 430.23 378.8 356.93 337.35 320.05 308.09 301.49 296.45 292.96 290.37 288.66 288.4 289.57 289.15 287.14 286.41 286.97 288.01 289.54 288.1 283.68 283.25 286.79 290.49 294.34 296.1 295.76 294.7 292.91 294.18 298.51 298.62 294.52 291.68 290.12 288.93 288.12 284.77 278.88 277.22 279.8 278.98 274.78 274.64 278.59 279.89 278.54 276.54 273.89 272.66 272.86 270.44 265.42 261.94 260.02 258.52 257.45 256.51 255.71 255.04 254.53 254.77 255.77 255.94 255.29 255.91 257.79 258.49 258.01 257.96 258.34 258.4 258.14 258.82 260.45 259.87 257.07 255.65 255.62 253.87 250.4 248.57 248.4 249.91 253.11 253.76 251.86 251.66 253.17 255.35 258.2 257.84 254.28 253.49 255.45 255.68 254.16 255.59 259.95 267.21 277.39 284.58 288.78 294.4 301.44 305.64 307.02 306.32 303.54 303.45 306.05 300.35 286.34 277.97 275.23 270.64 264.2 259.4 256.24 254.5 254.17 253.4 252.18 252.26 253.61 253.96 253.31 252.92 252.82 253.51 255 256.06 256.67 258.28 260.86 263.52 266.24 270.07 275 279.92 284.84 288.82 291.87 295.42 299.46 305.55 313.69 323.02 333.53 341.2 346.01 350.45 354.52 353.35 346.96 341.79 337.82 338.12 342.68 343.59 340.82 337.78 334.45 335.35 340.47 343.56 344.63 341.18 333.24 329.74 330.69 333.63 338.56 342.78 346.27 349.29 351.84 347.25 335.51 328.12 325.07 323.83 324.39 324.27 323.45 323.69 324.99 326.17 327.23 327.77 327.79 327.63 327.28 329.62 334.66 336.46 335.04 333.34 331.35 329.76 328.56 328 328.1 327.37 325.83 325.08 325.14 325.51 326.21 325.31 322.82 320.61 318.66 316.56 314.31 314.94 318.46 321.73 324.77 326.56 327.13 327.25 326.93 327.45 328.81 328.93 327.81 327.79 328.88 329.99 331.12 331.37 330.76 330.41 330.33 331.38 333.54 336.35 339.79 345.71 354.11 355.83 350.88 346.61 343.03 340.75 339.78 340.85 343.97 345.15 344.39 343.48 342.43 342.57 343.9 345.13 346.24 348.85 352.95 354.69 354.07 353.56 353.17 354.71 358.18 361.49 364.64 365.53 364.14 367.46 375.48 380.55 382.68 386.78 392.85 400.28 409.07 418.91 429.81 440.17 449.99 455.36 456.27 453.82 448.01 444.31 442.72 437.94 429.97 425.88 425.68 420.41 410.08 402.95 399.03 398.72 402.01 403.51 403.21 415.13 439.27 448.25 442.09 439.71 441.13 443.52 446.88 443.68 433.91 427.75 425.19 425.74 429.39 423.75 408.82 395.96 385.18 378.48 375.87 373.45 371.23 369.66 368.72 368.25 368.22 373.27 383.38 390.05 393.28 393.07 389.4 387.53 387.47 386.94 385.92 384.61 383.02 382.33 382.55 383.27 384.51 387.52 392.28 393.87 392.29 392.33 394.01 396.01 398.34 399.51 399.53 399.16 398.41 398.13 398.32 398.16 397.66 396.26 393.94 392.01 390.45 390.54 392.26 393.35 393.8 394.63 395.81 397.08 398.44 399.29 399.63 399.94 400.22 400.62 401.12 402.03 403.35 404.62 405.83 411.55 421.78 425.34 422.22 422.55 426.32 429.5 432.07 440.15 453.74 485.1 534.24 543.45 512.7 480.24 446.07 426.47 421.45 416.77 412.44 409.31 407.38 406.57 406.86 407.21 407.63 409.69 413.39 413.38 409.66 407.03 405.48 404.99 405.56 405.84 405.83 406.04 406.48 407.86 410.17 411.65 412.29 414.97 419.71 421.18 419.38 417.39 415.22 416.31 420.65 425.26 430.14 431.1 428.13 427.22 428.37 433.44 442.44 470.55 517.78 541.18 540.75 523.67 489.93 465.07 449.1 440.08 438.03 438.43 441.29 440.24 435.26 439.02 451.53 462.87 473.02 477.77 477.12 479.95 486.26 491.11 494.51 495.6 494.37 488.97 479.41 474.64 474.67 467.12 451.99 452.68 469.18 477.19 476.72 481.19 490.61 491.97 485.26 491.99
287.1 294.64 289.76 272.47 260.86 254.94 249.39 244.22 239.16 234.2 231.7 231.67 232.23 233.38 235.65 239.02 242.75 246.85 253.05 261.34 272.31 285.95 297.49 306.93 331.22 370.34 447.52 562.74 583.12 508.66 436.64 367.05 320.66 297.47 283.19 277.82 284.38 302.88 318.36 330.83 322.8 294.26 293.7 321.12 379.26 468.12 495.51 461.44 426.78 391.53 362.85 340.73 322.91 309.38 299.81 294.17 289.94 287.1 286.05 286.79 287.2 287.27 287.15 286.85 285.17 282.14 282.54 286.4 286.82 283.81 284.32 288.35 290.13 289.66 291.38 295.28 294.38 288.68 287.4 290.53 292.17 292.33 290.45 286.52 285.44 287.2 286.53 283.43 279.89 275.92 275.29 277.99 279.17 278.8 276.81 273.19 270.62 269.11 269.8 272.69 270.08 261.97 257.71 257.31 256.9 256.47 255.75 254.74 254.52 255.1 255.49 255.69 255.81 255.85 256.06 256.44 256.62 256.57 257.31 258.84 260.19 261.35 261.51 260.68 259.91 259.2 258.08 256.53 254.4 251.71 249.49 247.76 247.67 249.21 248.87 246.66 248.79 255.27 259.48 261.44 258.17 249.67 246.92 249.91 251.78 252.53 255.03 259.28 264.42 270.46 275.4 279.23 282.07 283.92 285.07 285.51 288.63 294.43 301.58 310.08 310.71 303.47 295.54 286.94 278.17 269.25 262.14 256.84 253.77 252.93 251.98 250.93 250.67 251.22 251.64 251.91 252.08 252.15 252.6 253.43 253.91 254.03 255.8 259.21 264.67 272.2 277.03 279.17 283.39 289.7 291.17 287.81 288.55 293.37 300.75 310.68 320.87 331.32 339.35 344.96 349.23 352.17 352.33 349.7 344.6 337.02 335.57 340.24 340.53 336.43 331.55 325.9 329.89 343.53 349.37 347.41 341.06 330.31 326.17 328.64 329.81 329.7 332.41 337.95 343.08 347.79 344.9 334.41 327.69 324.74 323.38 323.62 322.83 321.03 321.66 324.71 325.34 323.55 322.9 323.38 323.85 324.3 327.28 332.78 334.78 333.27 332.44 332.28 330.75 327.85 326.62 327.05 326.99 326.43 326.11 326.02 326.96 328.91 325.86 317.81 314.5 315.91 316.12 315.13 315.56 317.43 320.29 324.13 326.06 326.08 325.95 325.69 326.25 327.64 327.95 327.17 327.45 328.78 329.33 329.1 329.19 329.59 329.44 328.72 328.51 328.81 332.08 338.35 343.03 346.1 349.55 353.37 351.82 344.9 341.24 340.82 344.99 353.74 357.19 355.32 351.12 344.56 342.31 344.35 346.37 348.38 353.88 362.89 365.92 362.97 359.84 356.53 359.79 369.62 375.46 377.29 373.64 364.5 368.57 385.84 398.53 406.63 414.11 420.97 427.53 433.8 439.34 444.17 451.51 461.37 466.37 466.51 466.58 466.58 462.82 455.32 446.35 435.92 425.56 415.28 408.93 406.49 403.86 401.01 401.01 403.84 407.94 413.32 425.66 444.95 449.15 438.25 438.33 449.37 458.88 466.85 467.56 461.02 452.85 443.05 437.81 437.12 425.7 403.56 392.38 392.16 387.84 379.44 373.84 371.04 369.37 368.83 370.06 373.07 379.03 387.95 393.23 394.87 394.48 392.05 388.01 382.37 379.67 379.9 382.11 386.3 388.26 388.01 388.2 388.85 390 391.65 391.38 389.19 388.97 390.7 393.31 396.79 398.63 398.82 398.88 398.81 398.62 398.31 398.22 398.34 397.16 394.67 392.68 391.17 390.92 391.92 392.63 393.04 392.69 391.58 391.61 392.8 394.03 395.31 395.76 395.38 394.69 393.66 393.51 394.21 396.05 399.04 403.04 408.06 411.56 413.54 416.53 420.53 424.46 428.31 432.93 438.33 452.01 473.97 479.21 467.74 452.64 433.92 422.48 418.31 419.84 427.08 425.13 413.97 408.86 409.81 411.57 414.13 415.17 414.66 412.68 409.22 406.82 405.46 404.17 402.93 402.13 401.75 402.21 403.51 404.98 406.61 408.27 409.98 413.19 417.91 418.88 416.11 415.29 416.4 420.5 427.57 433.49 438.26 439.11 436.05 433.77 432.26 434.33 439.97 450.68 466.44 478 485.37 481.05 465.02 452.91 444.7 440.03 438.89 439.02 440.43 439.82 437.19 440.78 450.59 459.86 468.6 472.03 470.15 481.09 504.84 514.06 508.74 507.13 509.23 505.82 496.91 488.93 481.86 470.6 455.16 459.87 484.76 492.29 482.49 483.74 496.04 501.16 499.09 499.13
255.6 275.73 279.39 266.6 253.45 239.92 233.26 233.46 233.28 232.7 232.42 232.43 233.16 234.62 237.55 241.96 246.12 250.03 256.03 264.14 275.66 290.6 312.65 341.81 377.35 419.28 473.79 540.88 527.25 432.88 369.73 337.78 310.71 288.49 282.56 292.93 308.35 328.82 337.59 334.66 319.57 292.3 297.81 336.08 386.97 450.49 455.43 401.79 369.75 359.31 344.51 325.36 310.37 299.52 292.06 287.98 285.23 283.82 283.67 284.78 285.2 284.95 284.36 283.42 281.48 278.54 279.36 283.93 285.53 284.16 284.5 286.55 287.05 285.98 287.55 291.75 290.83 284.76 282.92 285.3 287.24 288.74 287.41 283.24 282.03 283.78 284.32 283.65 280.77 275.67 274.21 276.39 277.11 276.37 274.27 270.8 268.11 266.19 266.93 270.31 268.62 261.85 257.83 256.55 255.96 256.04 255.49 254.31 254.14 254.99 255.35 255.2 255.25 255.49 255.72 255.94 256.06 256.08 256.9 258.51 260.69 263.43 263.96 262.26 261.23 260.87 259.61 257.46 255.02 252.29 250.07 248.37 247.53 247.57 246.68 244.87 247.3 254 258.41 260.53 257.06 248 244.8 247.47 249.45 250.74 253.25 256.97 260.28 263.16 266.3 269.7 271.45 271.56 273.02 275.83 283.14 294.95 302.53 305.87 305.81 302.35 296.85 289.32 280.5 270.41 263.01 258.3 254.77 252.44 251.19 251.01 250.59 249.95 250.04 250.87 251.24 251.14 251.29 251.68 251.96 252.14 254.66 259.52 267.59 278.86 286.04 289.13 292.07 294.85 296.4 296.71 296.88 296.91 300.9 308.85 317.51 326.89 334.38 340 344.35 347.41 348.36 347.2 343.12 336.13 334.45 338.07 337.47 332.64 326.99 320.52 324.48 338.88 344.46 341.24 335.23 326.43 323.96 327.82 330.02 330.56 333.72 339.48 344.64 349.18 345.68 334.12 327.03 324.39 322.99 322.82 321.51 319.06 319.6 323.14 323.87 321.79 320.63 320.38 320.87 322.08 325.22 330.28 332.42 331.64 331.41 331.72 330.36 327.33 326.07 326.57 326.86 326.94 326.93 326.83 327.21 328.06 323.98 314.97 311.75 314.31 316.07 317.02 318.27 319.82 321.63 323.68 324.6 324.4 324.38 324.52 325.21 326.44 326.9 326.59 326.87 327.75 327.95 327.47 327.45 327.9 328.68 329.78 329.8 328.74 330.98 336.52 339.57 340.14 344.52 352.73 353.77 347.64 344.74 345.08 349.82 358.97 362.52 360.48 356.5 350.57 348.48 350.22 351.76 353.09 359.8 371.88 375.15 369.63 364.72 360.42 364.42 376.7 385.23 390 386.29 374.08 376.78 394.38 408.67 419.65 428.53 435.3 442.75 450.88 455.97 458.01 461.06 465.09 466.26 464.57 464.29 465.44 460.99 450.94 441.39 432.34 422.58 412.11 406.82 406.69 405.15 402.18 402.45 405.95 411.69 419.65 430.94 445.53 450.78 446.68 451.6 465.54 475.05 480.14 477.86 468.22 458.66 449.17 442.41 438.36 425.95 405.17 394.38 393.57 389.21 381.28 375.31 371.3 369.59 370.16 371.41 373.35 378.26 386.14 391.32 393.81 394.02 391.95 387.59 380.93 377.34 376.83 379.73 386.04 389.29 389.48 389.87 390.47 391.09 391.74 390.92 388.64 388.67 391.02 393.78 396.94 398.42 398.22 399.29 401.61 401.85 400 399.33 399.83 398.95 396.68 394.72 393.08 392.12 391.82 391.67 391.66 390.94 389.52 389.14 389.78 390.79 392.17 392.59 392.06 391.47 390.81 390.83 391.52 393.17 395.76 398.12 400.23 403.75 408.68 412.83 416.2 420.12 424.6 427.37 428.45 432.53 439.59 442.98 442.71 438.34 429.88 423.05 417.87 420.79 431.82 434.27 428.16 423 418.78 417.07 417.88 417.03 414.51 411.61 408.31 406.15 405.12 403.8 402.2 400.99 400.17 400.17 401.01 402.65 405.1 407.14 408.77 411.88 416.49 417.2 414.01 413.49 415.63 421.25 430.34 437.16 441.72 444.27 444.83 449.41 458.01 456.38 444.53 438.99 439.76 444.77 454.02 456.77 453.03 449.59 446.47 444.01 442.2 442.62 445.27 446.36 445.89 449.57 457.4 465.54 474 478.44 478.86 493.07 521.07 530.46 521.26 517.36 518.76 514.85 505.63 494.65 481.89 468.25 453.74 461.06 490.21 500.29 491.29 492.47 503.82 512.37 518.09 514.74
261.48 252.85 247.72 246.11 241.85 234.94 230.94 229.87 230.32 232.29 233.47 233.86 234.86 236.46 239.37 243.58 248.95 255.48 261.03 265.59 275.86 291.83 334.1 402.64 457.73 499.34 504.43 472.97 429.84 375.02 334.11 307.1 288.97 279.72 292.66 327.79 352.84 367.82 353.69 310.47 288.8 288.69 315.58 369.46 395.95 395.03 381.78 356.22 340.14 333.57 323.8 310.84 299.72 290.46 284.86 282.91 282.33 283.13 283.22 282.62 282.42 282.63 280.77 276.86 275.34 276.19 278.47 282.16 284.25 284.73 283.79 281.41 281.25 283.31 284.62 285.19 284.03 281.15 280.74 282.81 283.81 283.75 282.57 280.26 278.7 277.86 278.15 279.55 279.85 279.04 275.74 269.96 268.47 271.29 272.26 271.38 269.01 265.14 264.04 265.72 266.06 265.06 262.29 257.75 255.7 256.15 255.72 254.41 253.91 254.22 254.35 254.3 254.26 254.23 254.9 256.28 256.83 256.55 256.73 257.35 259.91 264.4 266.17 265.21 263.84 262.06 260.26 258.43 255.73 252.16 250.32 250.22 249.52 248.2 247.19 246.48 247.2 249.37 252.12 255.46 254.51 249.26 247.14 248.13 248.69 248.8 250.25 253.03 254.77 255.48 257.28 260.18 262.53 264.34 269.49 277.98 289.86 305.12 306.31 293.42 285.65 282.99 281.9 282.37 277.64 267.7 262.02 260.62 257.51 252.7 251.01 252.42 252.02 249.79 249.18 250.19 250.39 249.79 249.58 249.75 250.22 250.98 254.85 261.82 272.28 286.22 297.09 304.89 305.95 300.3 304.5 318.55 320.42 310.09 306.02 308.2 312.93 320.22 326.29 331.16 335.81 340.24 341.46 339.46 337.36 335.16 334.76 336.16 334.4 329.47 324.1 318.31 319.11 326.51 328.85 326.11 323.7 321.61 323.12 328.23 334.25 341.16 346.7 350.85 353.96 356.03 349.59 334.65 326.12 324.03 322.65 321.99 320.29 317.54 317.53 320.28 321.75 321.94 320.96 318.81 318.69 320.62 323.43 327.14 329.38 330.15 330.25 329.67 328.59 327 326.35 326.65 326.98 327.36 327.55 327.55 326.26 323.67 319.68 314.3 312.36 313.85 316.39 319.98 323.06 325.63 325.75 323.42 322.2 322.11 322.52 323.44 324.34 325.22 325.79 326.05 326.04 325.78 325.84 326.22 326.16 325.68 328.13 333.51 335.25 333.35 333.03 334.29 335.35 336.21 340.75 348.96 352.45 351.23 351.25 352.54 355.34 359.66 361.17 359.86 359.62 360.45 361.08 361.52 361.29 360.4 366.61 379.93 382.4 374.03 368.19 364.87 368.61 379.41 390.8 402.79 403.48 392.88 392.08 401.1 410.99 421.76 430.04 435.85 445.94 460.32 468.79 471.35 468.81 461.16 455.04 450.45 446.97 444.6 438.81 429.58 423.06 419.25 416.95 416.16 414.07 410.67 406.83 402.55 403.06 408.36 414.74 422.21 430.96 441 453.13 467.36 479.52 489.62 492.03 486.77 474.59 455.51 445.17 443.57 439.55 433.13 424.5 413.66 401.97 389.43 382.57 381.39 377.88 372.03 370.3 372.71 372.3 369.08 370.96 377.95 384.32 390.09 391.69 389.12 386.27 383.13 379.94 376.7 377.47 382.26 385.42 386.96 388.28 389.37 390.79 392.53 392.48 390.62 391.45 394.97 397.42 398.79 398.89 397.74 400.37 406.8 407.8 403.39 401.5 402.14 401.62 399.94 398.13 396.19 394.14 391.98 390.49 389.66 389.38 389.65 389.65 389.38 389.57 390.2 390.43 390.26 390.97 392.55 394 395.29 395.96 396.01 396.78 398.28 401.91 407.66 411.46 413.31 416.47 420.94 423.49 424.12 426.66 431.1 434.76 437.62 437.35 433.92 428.19 420.14 419.62 426.63 436.75 449.97 448.98 433.77 423.74 418.88 415.28 412.94 410.16 406.93 405.03 404.45 403.9 403.36 402.41 401.07 399.92 398.98 400.89 405.67 408.26 408.67 411.06 415.45 416.12 413.07 412 412.91 418.56 428.96 436.28 440.53 446.59 454.46 474.13 505.61 499.61 456.12 435.5 437.73 441.46 446.7 450.86 453.93 455.12 454.42 452.03 447.96 449.23 455.82 459.86 461.35 465.39 471.97 479.92 489.23 497.01 503.26 515.91 534.93 540.32 532.08 526.29 522.97 516.07 505.58 491.8 474.74 460.05 447.73 456.23 485.54 501.18 503.13 507.39 513.95 525.58 542.26 538.82
254.31 236.49 229.22 232.49 233.2 231.35 229.82 228.61 229.23 231.67 233.96 236.08 238.23 240.42 243.1 246.27 252.27 261.1 268.38 274.14 285.49 302.44 352.48 435.63 502.66 553.57 532.51 439.47 375.62 340.96 312.12 289.12 276.78 275.11 297.23 343.12 365.35 363.91 341.19 297.17 287.45 312.03 343 380.36 384.2 354.51 334.78 325 317.63 312.66 306.14 298.09 290.82 284.34 280.54 279.42 279.3 280.17 279.82 278.25 277.94 278.89 277.25 273.02 271.98 274.1 277.23 281.35 283.54 283.78 281.83 277.7 277.12 280.1 280.9 279.53 278.5 277.8 278.65 281.05 281.71 280.62 279.46 278.21 276.77 275.12 274.98 276.34 277.5 278.47 274.63 265.97 263.26 266.51 268.36 268.8 267.18 263.51 261.92 262.4 263.48 265.16 263.36 258.1 255.72 256.23 255.81 254.46 253.81 253.86 253.89 253.89 253.81 253.64 254.51 256.42 257.21 256.87 256.7 256.71 259.45 264.92 267.41 266.9 265.26 262.49 260.5 259.28 256.65 252.61 251.11 252.13 251.72 249.86 248.16 246.6 246.93 249.13 251.76 254.81 253.94 249.15 246.96 247.38 247.23 246.51 247.15 249.14 250.28 250.57 252.64 256.48 259.73 262.37 268.24 277.34 289.67 305.21 303.23 283.74 273.55 272.66 273.28 275.4 273.05 266.21 262.71 262.52 260.53 256.72 254.57 254.06 252.27 249.19 248.26 249.47 249.66 248.84 248.41 248.37 248.67 249.34 254.29 263.53 279.84 303.24 314.03 312.22 307.25 299.13 303.06 319.05 321.6 310.72 305.55 306.1 308.74 313.48 318.3 323.22 327.68 331.7 333.06 331.78 331.44 332.02 331.99 331.36 329.36 326.01 321.99 317.32 316.31 318.96 320.1 319.72 321.93 326.74 332.06 337.89 342.86 346.98 349.6 350.72 351.28 351.28 345.13 332.83 325.49 323.09 321.48 320.65 318.88 316.16 315.92 318.15 319.81 320.89 320.43 318.43 318.39 320.33 322.58 325.14 327.34 329.18 329.58 328.55 328.06 328.13 328.04 327.79 327.16 326.14 325.02 323.81 321.74 318.81 316.7 315.41 315.18 316.02 318.85 323.7 327.07 328.98 327.94 323.95 322.06 322.27 322.97 324.17 324.8 324.87 326.24 328.91 330.99 332.45 332.45 331 329.33 327.47 329.6 335.73 339.06 339.6 339.35 338.32 338.51 339.92 344.5 352.26 354.57 351.42 349.57 349.04 349.93 352.24 353.44 353.51 357.08 364.13 366.78 365.01 363.59 362.52 368.65 381.99 385.6 379.5 374.28 369.93 370.91 377.25 386.13 397.58 399.88 393.05 392.94 399.56 406.62 414.1 420.17 424.81 434.52 449.33 459.33 464.55 464.1 457.98 451.61 444.97 439.91 436.43 431.31 424.58 420.96 420.45 421.63 424.5 421.67 413.14 407.88 405.9 408.17 414.69 422.44 431.42 441.24 451.91 466.13 483.88 494.22 497.14 492.92 481.55 468.63 454.18 444.4 439.27 433.89 428.25 421.34 413.15 402.02 387.97 382.13 384.5 382.59 376.38 374.48 376.88 376.32 372.81 371.52 372.45 377.05 385.32 388.76 387.39 385.98 384.54 381.46 376.74 376.25 380.01 383.03 385.33 386.73 387.25 388.56 390.66 391.54 391.2 392.72 396.09 397.73 397.64 397.66 397.77 401.15 407.79 409.38 405.92 404.08 403.88 402.92 401.2 399.38 397.47 395.26 392.74 390.73 389.21 388.88 389.74 389.91 389.41 389.23 389.38 389.19 388.66 390.27 394.02 396.08 396.44 396.25 395.49 395.48 396.21 399.66 405.83 409.77 411.49 414.31 418.22 420.17 420.17 421.66 424.65 428.32 432.65 434.46 433.74 429.08 420.47 417.84 421.18 431.52 448.84 450.07 435.22 424.78 418.78 414.1 410.76 407.41 404.05 402.36 402.32 402.49 402.85 402.44 401.27 400.2 399.23 401.04 405.64 408.12 408.47 410.39 413.88 414.34 411.75 410.67 411.1 415.92 425.13 431.86 436.11 443.03 452.61 473.64 506.13 500.24 455.98 437.99 446.28 454.4 462.35 465.82 464.83 463.48 461.77 458.72 454.32 454.37 458.87 462.61 465.6 469.91 475.54 482.92 492.07 502.67 514.73 526.64 538.41 539.73 530.58 523.24 517.73 510.64 502 491.86 480.23 467.17 452.68 458.15 483.58 499.89 507.09 516.3 527.53 539.58 552.44 551.42
234.08 226.65 223.87 225.74 227.5 229.15 229.88 229.68 230.01 230.85 233.88 239.08 243.28 246.48 248.73 250.03 256.08 266.87 278.1 289.77 304.54 322.4 367.81 440.76 512.14 581.96 558.04 440.39 364.61 330.69 303.77 283.85 274.15 274.66 296.25 338.92 345.87 317.1 300.07 294.77 315.52 362.32 380.07 368.77 351.73 328.95 314.42 308.14 302.2 296.58 291.55 287.11 283.65 281.16 279.11 277.52 276.13 274.96 273.47 271.67 271.75 273.73 273.78 271.9 271.4 272.27 275.64 281.51 283.4 281.3 278.63 275.4 274.65 276.35 276.41 274.8 274.24 274.71 276.64 280.01 280.92 279.36 278.08 277.08 276.24 275.56 274.82 274.02 273.73 273.97 270.86 264.41 261.47 262.03 262.56 263.05 262.64 261.31 260.55 260.36 260.89 262.14 261.04 257.6 256.02 256.29 255.77 254.45 253.83 253.92 253.96 253.96 253.89 253.74 254.57 256.36 257.19 257.03 256.83 256.59 259.31 264.99 267.67 267.32 265.49 262.16 260.33 259.99 257.76 253.64 252.42 254.09 254.13 252.55 249.59 245.24 246.48 253.29 257.33 258.58 255.35 247.65 244.26 245.21 245.08 243.87 243.95 245.31 246.81 248.45 252.38 258.62 263.03 265.64 269.27 273.92 282.57 295.22 293.3 276.82 269.5 271.37 271 268.4 266.72 265.96 265.05 264.01 263.83 264.51 261.86 255.9 251.34 248.17 247.29 248.71 249.04 248.3 247.79 247.53 247.33 247.2 252.97 264.65 290.29 329.91 336.85 311.12 295.95 291.34 292.09 298.18 300.42 298.79 299.5 302.55 304.94 306.67 310.41 316.17 319.95 321.77 323.17 324.16 325.35 326.72 326.16 323.66 322.36 322.27 320.66 317.55 316.07 316.22 318.22 322.05 329.92 341.82 350.77 356.78 355.86 348.01 342.42 339.08 336.57 334.91 332.28 328.67 325.11 321.59 319.49 318.81 317.29 314.94 314.77 316.77 318.05 318.62 319.02 319.24 319.97 321.22 322.65 324.26 326.29 328.74 329.42 328.33 328.77 330.72 331.14 330.01 327.38 323.26 319.33 315.59 313.64 313.48 315.02 318.29 320.22 320.82 323.47 328.17 330.3 329.87 328.2 325.29 324.19 324.9 325.74 326.73 326.61 325.39 328.25 335.19 341.69 347.75 347.79 341.81 336.97 333.27 333.1 336.44 341.24 347.49 349.95 348.63 349.06 351.26 355.79 362.63 360.1 348.2 339.7 334.58 333.59 336.72 339.34 341.44 348.86 361.61 365.56 360.69 358.66 359.47 365.94 378.06 384.76 386.04 382.99 375.6 371.34 370.2 371.22 374.37 375.5 374.6 379.35 389.75 395.53 396.7 398.9 402.16 408.5 417.9 427.6 437.59 446.9 455.55 455.96 448.14 443.12 440.91 438.51 435.92 435.07 435.97 436.65 437.12 429.6 414.08 408.29 412.22 417.78 424.95 434.79 447.29 461.78 478.27 489.76 496.24 495.68 488.1 477.7 464.48 459.99 464.23 456.33 436.28 425.41 423.73 416.47 403.64 394.55 389.2 387.89 390.61 389.44 384.37 382.12 382.68 383.49 384.55 379.93 369.65 369.5 379.49 385.25 386.76 386.73 385.17 381.9 376.94 376.07 379.3 382.14 384.58 385.24 384.11 384.4 386.13 388.12 390.37 392.46 394.37 394.72 393.52 394.72 398.32 401.61 404.6 406.59 407.59 407.08 405.05 402.84 400.44 398.47 396.94 395.49 394.12 392.4 390.31 389.45 389.8 389.94 389.86 389.77 389.69 388.86 387.27 389.38 395.21 397.07 394.97 394.02 394.22 394.22 394.02 397.01 403.18 407.76 410.73 413.63 416.44 417.44 416.6 417.53 420.24 423.66 427.79 429.68 429.32 425.71 418.85 415.43 415.46 418.57 424.76 426.28 423.12 420.22 417.59 413.5 407.96 403.35 399.67 398.13 398.73 399.58 400.67 401.07 400.78 401.01 401.77 403.11 405.03 406.72 408.18 409.86 411.78 411.84 410.04 409.5 410.22 413.34 418.85 423.89 428.47 433.6 439.28 447.94 459.57 458.29 444.1 446.47 465.4 483.56 500.96 501.67 485.72 474.67 468.54 464.07 461.26 458.05 454.43 454.63 458.66 463.15 468.1 474.56 482.52 495.42 513.25 525.28 531.51 528.67 516.76 508.21 503.02 498.59 494.91 494.83 498.35 489.6 468.58 466.83 484.33 496.44 503.15 519.19 544.55 554.37 548.65 552.56
224.76 222.71 222.23 223.31 225.12 227.67 229.14 229.54 229.79 229.91 232.81 238.49 243.01 246.37 249.43 252.18 260.11 273.21 286.79 300.84 321.45 348.63 387.95 439.41 509.29 597.6 573.65 437.45 353.68 322.33 297.85 280.25 277.04 288.23 306.43 331.66 328.78 297.81 291.82 310.82 348.06 403.54 407.79 360.82 328.42 310.59 299.44 294.98 289.98 284.44 280.32 277.6 276.55 277.14 276.52 274.69 273.36 272.55 271.36 269.81 269.59 270.7 271.18 271.02 271.02 271.18 274.3 280.38 282.36 280.24 277.84 275.16 273.66 273.33 272.99 272.62 272.67 273.13 275.06 278.46 279.36 277.78 276.56 275.7 274.7 273.56 272.28 270.86 270.05 269.84 267.82 263.99 261.28 259.69 259.21 259.84 259.94 259.51 259.33 259.41 259.94 260.93 260.11 257.47 256.25 256.47 255.85 254.4 253.74 253.89 253.96 253.96 253.9 253.77 254.63 256.47 257.31 257.15 257.11 257.22 259.89 265.13 267.26 266.29 264.81 262.81 261.56 261.03 259.08 255.69 254.52 255.57 255.4 254.02 250.98 246.31 248.07 256.27 259.63 258.16 253.84 246.67 242.45 241.16 241.51 243.49 244.52 244.6 245.41 246.94 251.1 257.9 262.4 264.6 266.95 269.44 275.6 285.43 284.29 272.18 266.43 267.05 265.97 263.2 262.98 265.32 264.73 261.2 260.53 262.71 260.63 254.28 249.93 247.58 247.16 248.67 249.09 248.41 248.25 248.61 248.35 247.45 251.74 261.23 284.28 320.9 327.41 303.83 290.76 288.2 287.42 288.43 289.81 291.58 294.64 298.98 301.45 302.07 304.67 309.25 312.63 314.81 316.02 316.28 317.85 320.74 321.25 319.38 318.42 318.4 317.86 316.81 314.97 312.36 313.61 318.73 327.65 340.37 349.44 354.87 352.33 341.83 333.27 326.64 322.4 320.55 320.21 321.39 320.57 317.76 316.03 315.39 314.87 314.49 314.68 315.45 316.06 316.52 317.21 318.15 319.46 321.15 322.46 323.38 325.1 327.62 328.5 327.76 328.67 331.23 331.55 329.61 326.26 321.51 317.3 313.62 312.95 315.3 318.52 322.62 325.06 325.87 328.09 331.73 332.39 330.08 328.46 327.54 327.84 329.38 330.14 330.12 329.54 328.38 330.2 335 341.86 350.8 352.19 346.04 340.25 334.81 333 334.81 340.56 350.25 353.56 350.5 350.25 352.81 357.11 363.14 359.52 346.25 335.11 326.12 323.14 326.16 329.82 334.12 341.26 351.24 353.94 349.35 348.26 350.69 358.97 373.12 380.42 380.86 378.21 372.47 367.24 362.54 359.92 359.39 360.98 364.68 370.26 377.72 384.04 389.23 392.52 393.91 396.68 400.83 407.29 416.06 426.81 439.54 444.69 442.24 439.96 437.84 436.76 436.73 438.76 442.83 443.69 441.35 433.82 421.12 416.47 419.87 425.6 433.67 444.11 456.93 468.91 480.05 485.53 485.36 482.14 475.85 467.54 457.21 455.83 463.42 454.14 428.01 415.46 416.49 412.41 403.21 396.87 393.39 393.67 397.72 397.47 392.91 390.79 391.09 389.71 386.65 380.25 370.5 370.07 378.98 384.2 385.75 385.94 384.77 383.09 380.91 379.49 378.83 379.6 381.81 382.36 381.27 381.53 383.17 386.19 390.6 393.16 393.87 394.16 394.04 396.05 400.2 402.56 403.13 404.03 405.27 404.94 403.03 400.96 398.72 397.22 396.46 395.68 394.87 393.38 391.19 390.07 390.01 390.51 391.57 392.45 393.13 393.44 393.4 395.02 398.3 398.57 395.83 394.09 393.35 392.53 391.64 394.47 401.02 405.85 408.97 411.71 414.08 414.39 412.64 412.71 414.6 417.72 422.06 423.59 422.31 419.85 416.23 412.58 408.9 408.21 410.5 412.55 414.36 414.88 414.09 410.9 405.3 401.01 398.05 396.95 397.72 398.64 399.71 400.4 400.69 401.64 403.23 404.16 404.43 405.65 407.82 409.03 409.29 409.24 408.88 409.05 409.74 411.72 415 418.29 421.59 425.12 428.89 431.91 434.19 435.97 437.25 448.12 468.56 488.81 508.85 508.66 488.24 474.71 468.07 464.07 462.69 459.48 454.44 454.12 458.53 462.92 467.28 475.65 488.05 501.41 515.75 526.4 533.36 531.48 520.75 512.28 506.05 499.76 493.42 494.2 502.09 496.89 478.62 475.33 487.04 498.92 510.98 529.13 553.37 562.01 555.04 561.07
226.37 224.67 224.27 225.18 226.05 226.9 227.6 228.18 228.59 228.84 230.74 234.29 237.41 240.11 245.21 252.72 264.35 280.12 294.45 307.33 336.22 381.11 412.89 431.56 494.09 600.49 579.34 430.65 342.83 315.87 294.37 278.32 285.47 315.81 327.77 321.34 314.09 306.02 316.43 345.32 385.07 435.68 426.16 356.51 314.27 299.43 289.84 285.5 280.97 276.25 272.45 269.56 269.51 272.3 272.78 270.94 270.99 272.92 273.48 272.67 271.44 269.78 269.43 270.39 270.86 270.85 273.21 277.94 280.41 280.6 279.45 276.96 274.15 271.03 270.64 273 273.81 273.06 273.93 276.39 277.05 275.9 274.91 274.08 272.15 269.12 267.36 266.86 266.44 266.09 265.51 264.7 262.69 259.48 258.31 259.17 259.1 258.11 258.25 259.53 260.63 261.54 260.56 257.7 256.43 256.77 256.06 254.31 253.54 253.76 253.87 253.88 253.84 253.74 254.71 256.74 257.58 257.2 257.54 258.59 261.19 265.33 266.2 263.81 263.22 264.45 264.18 262.4 260.59 258.76 257.42 256.58 255.52 254.25 252.34 249.79 251.7 258.07 258.68 253.54 249.39 246.23 241.51 235.24 236.52 245.37 248.86 247.01 246.07 246.04 248.79 254.33 257.82 259.25 261.28 263.9 268.76 275.85 276.21 269.82 264.32 259.7 258.19 259.79 261.82 264.3 261.72 254.09 250.63 251.34 250.86 249.19 248.04 247.42 247.86 249.36 249.81 249.19 249.79 251.63 251.73 250.09 250.6 253.27 261.8 276.2 285.72 290.35 291.67 289.7 289.07 289.77 289.78 289.1 290.96 295.36 298.27 299.68 301.08 302.46 305.7 310.8 311.61 308.13 308.95 314.09 317.27 318.51 317.55 314.39 313.57 315.08 313.02 307.38 306.29 309.75 315.12 322.4 328.07 332.14 332.27 328.44 322.16 313.41 308.76 308.18 308.92 310.97 311.86 311.59 311.1 310.39 311.63 314.8 315.66 314.21 313.85 314.56 315 315.16 316.87 320.13 322.01 322.5 323.77 325.8 326.82 326.82 327.77 329.67 329.28 326.6 323.8 320.88 318.91 317.89 319.68 324.28 327.19 328.4 329.73 331.17 332.72 334.37 333.33 329.61 328.73 330.69 333.03 335.73 336.18 334.36 333.59 333.86 332.11 328.34 331.5 341.58 345.65 343.71 339.19 332.08 329.3 330.84 337.04 347.87 350.17 343.94 342.07 344.57 348.48 353.8 352.82 345.54 335.82 323.66 318.58 320.57 324.89 331.55 334.25 333.01 331.92 330.98 332.4 336.17 347.76 367.18 372.58 363.97 359.96 360.55 358.64 354.24 352.24 352.63 356.32 363.31 365.69 363.45 372.13 391.71 401.02 400.04 399.07 398.1 398.39 399.96 403.81 409.95 417.78 427.28 430.42 427.2 426.06 427.02 432.01 441.04 442.76 437.18 434.34 434.25 432.41 428.83 431.63 440.83 450.41 460.36 462.64 457.25 453.46 451.26 453.58 460.4 462.45 459.73 456.16 451.74 437.84 414.46 404.03 406.55 409.16 411.86 408.98 400.53 399.48 405.84 406.68 402.01 400.49 402.11 394.99 379.13 372.47 375.01 378.77 383.76 385.63 384.39 383.62 383.35 385.02 388.64 386.5 378.6 375.43 377 378.09 378.73 379.96 381.79 385.76 391.87 394.81 394.58 396.05 399.2 401.66 403.4 403.98 403.39 401.72 398.96 397.66 397.82 397.27 396.03 395.61 396.02 395.82 395 393.67 391.85 390.74 390.36 391.63 394.56 397.24 399.68 402.95 407.05 407.17 403.3 400.58 399.01 396.44 392.87 390.41 389.06 392.03 399.33 404.06 406.22 408.58 411.12 411.03 408.3 407.2 407.73 410.48 415.45 416.18 412.69 411.5 412.62 409.28 401.51 400.43 406.05 408.89 408.95 408.75 408.29 406.3 402.77 400.4 399.18 398.81 399.29 399.68 399.98 400.42 401.02 402.08 403.61 404.19 403.83 404.9 407.39 407.89 406.41 406.54 408.27 409.3 409.65 411.07 413.57 415.04 415.48 417.61 421.44 425.57 429.99 433.28 435.43 442.93 455.76 470.13 486.04 486.8 472.41 463.6 460.38 458.71 458.6 458.67 458.9 461.08 465.21 469.21 473.07 486.22 508.65 520.66 522.24 530.01 543.96 548.15 542.56 535.45 526.8 514.17 497.55 489.97 491.44 489.05 482.79 483.68 491.72 507.35 530.56 546.1 553.99 562.49 571.61 576.97
225.94 224.68 225.02 226.97 227.83 227.58 228.4 230.3 231.03 230.57 232.32 236.28 239.07 240.7 247.82 260.44 275.04 291.62 314.83 344.67 376.2 409.42 426.32 426.88 470.24 556.4 535.71 408.15 331.63 306.16 287.13 274.56 291.65 338.41 348.02 320.5 314.41 329.73 353.46 385.61 409.96 426.53 403.16 339.84 301.96 289.53 281.46 277.76 274.4 271.36 268.6 266.11 266.22 268.92 269.68 268.5 268.91 270.89 272.07 272.43 271.41 269.02 268.87 270.96 271.48 270.42 271.8 275.62 278.51 280.47 280.77 279.43 276.92 273.22 271.79 272.61 272.33 270.95 271.04 272.6 272.86 271.8 271.13 270.84 268.72 264.78 262.7 262.49 262.78 263.57 264.17 264.59 262.87 259.01 257.55 258.49 258.47 257.5 258.02 260.01 261.27 261.79 261.25 259.64 258.52 257.89 256.76 255.14 254.32 254.29 254.29 254.29 254.1 253.7 254.56 256.66 258.1 258.89 260.11 261.78 263.77 266.08 265.76 262.8 262.26 264.16 264.52 263.36 261.88 260.08 258.23 256.32 254.77 253.59 252.48 251.45 252.04 254.27 253.89 250.89 247.99 245.18 239.98 232.39 233.18 242.35 245.77 243.44 243.06 244.63 247.56 251.84 254.25 254.79 256.51 259.4 264.38 271.46 272.04 266.13 259.87 253.24 251.17 253.64 255.89 257.92 256.21 250.76 248.35 248.99 248.44 246.69 246.22 247.01 248.03 249.28 249.6 248.99 250.08 252.87 253.22 251.13 250.07 250.04 252.34 256.97 267.34 283.44 290.35 288.09 287 287.08 287.02 286.8 288.81 293.05 295.41 295.89 295.99 295.72 298.04 302.95 304.71 303.29 305.04 309.97 313.81 316.58 316.04 312.19 310.92 312.24 310.33 305.19 303.65 305.71 308.46 311.92 315.65 319.66 319.97 316.58 311.63 305.14 301.84 301.73 302.78 304.98 306.52 307.41 307.56 306.98 308.53 312.21 313.36 311.99 312.15 313.84 314.6 314.43 316.22 319.95 322.02 322.4 322.87 323.43 324.52 326.14 327.59 328.87 327.83 324.46 321.76 319.72 319.42 320.85 323.78 328.22 331.02 332.17 333.26 334.27 335.22 336.1 334.65 330.88 330.31 332.96 336.1 339.74 340.51 338.41 336.95 336.14 333.32 328.49 329.8 337.26 339.98 337.97 333.47 326.47 323.12 323.42 329.02 339.94 341.63 334.1 331.18 332.88 337.42 344.78 346.98 344.01 336.67 324.96 318.49 317.27 319.43 324.96 325.35 320.6 318.99 320.51 323.22 327.12 339.16 359.33 364.6 354.98 351.1 352.95 352.01 348.29 347.07 348.36 352.58 359.75 362.82 361.78 370.48 388.92 396.1 392.02 388.48 385.48 384.04 384.15 386.69 391.65 399.29 409.59 413.29 410.39 412.82 420.59 426.72 431.23 429.66 422.01 421.67 428.66 430.18 426.23 427.92 435.23 440.91 444.95 441.94 431.89 426.15 424.74 432.03 448.02 455.47 454.4 448.39 437.45 422.64 403.97 396.37 399.85 405.75 414.08 415.79 410.88 411.28 416.98 416.38 409.48 404.79 402.32 391.88 373.49 368.76 377.71 383.32 385.58 385.84 384.09 383.06 382.76 384.49 388.24 385.68 376.79 372.94 374.13 375.29 376.45 378.12 380.3 384.28 390.04 393.47 394.57 397.06 400.94 402.63 402.12 401.41 400.5 398.72 396.07 394.79 394.87 394.6 394 394.92 397.38 397.49 395.26 393.8 393.11 391.99 390.44 391.76 395.95 400.39 405.08 412.99 424.11 423.44 410.97 401.82 395.98 394.33 396.86 394.74 387.96 387.64 393.77 398.57 402.03 405.1 407.78 407.77 405.09 403.4 402.71 404.64 409.2 409.32 405 404.13 406.72 404.36 397.04 396.64 403.16 406.31 406.1 405.73 405.18 403.72 401.35 399.76 398.97 399.45 401.21 402.55 403.47 403.29 401.99 401.93 403.11 403.57 403.3 404.87 408.28 410.21 410.66 410.74 410.45 410.3 410.28 411.17 412.96 413.57 412.98 414.03 416.72 421.17 427.4 431.67 433.99 438.9 446.41 455.84 467.2 468.84 460.76 455.88 454.21 453.38 453.39 454.87 457.82 461.25 465.18 471.36 479.8 495.67 518.96 529.86 528.36 535.74 552 555.05 544.86 537.79 533.82 521.46 500.72 490.31 490.23 489.41 487.86 490 495.85 510.27 533.28 545.44 546.76 553.08 564.41 568.94
223.47 222.74 224.48 228.7 230.44 229.71 231.54 235.93 237.12 235.11 237.56 244.44 247.97 248.15 257.28 275.36 292.17 307.71 347.94 412.85 441.4 433.58 428.23 425.37 437.74 465.33 442.74 369.95 320.1 293.19 276.15 268.97 295.59 356.02 367.21 329.16 329.73 368.92 402.91 431.68 422.75 376.1 338.78 310.79 291.5 280.89 274.31 271.76 270.24 269.75 268.76 267.27 266.68 267.01 267.24 267.37 267.11 266.46 267.11 269.07 269.51 268.43 269.5 272.74 272.88 269.91 270.09 273.41 276.66 279.84 281.81 282.58 281.95 279.92 276.42 271.45 268.24 266.79 266.41 267.1 266.79 265.49 265.22 265.98 264.42 260.53 258.3 257.74 259.06 262.26 263.8 263.68 261.84 258.27 256.92 257.79 258.05 257.7 258.64 260.85 261.86 261.68 262.16 263.29 262.52 259.83 257.96 256.9 256.07 255.49 255.19 255.19 254.68 253.67 254.18 256.22 258.89 262.19 264.83 266.79 267.65 267.39 265.93 263.26 261.93 261.94 262.6 263.92 262.94 259.66 256.94 254.79 253.16 252.05 251.42 251.28 249.1 244.87 245.25 250.22 249.65 243.54 237.86 232.61 231.48 234.44 235.25 233.89 236.39 242.73 247.41 250.42 251.69 251.22 252.63 255.92 262.46 272.24 271.8 261.13 253.08 247.67 244.89 244.74 245.17 246.19 248.2 251.21 253.7 255.66 253.36 246.79 244.45 246.35 247.66 248.41 248.46 247.83 249.12 252.34 252.82 250.55 250.13 251.55 255.91 263.21 272.27 283.1 286.8 283.35 281.2 280.35 281.52 284.71 288.21 292.04 292.87 290.71 289.43 289.02 289.63 291.27 295.32 301.77 306.13 308.38 310.88 313.61 313.91 311.79 309.91 308.27 306.9 305.79 305.68 306.59 307.67 308.92 312.18 317.43 315.45 306.25 301.7 301.81 301.65 301.2 301.79 303.42 304.56 305.22 305.42 305.15 305.59 306.72 307.79 308.79 310.97 314.34 316.01 315.98 317.52 320.62 322.47 323.08 322.41 320.48 321.58 325.71 328.13 328.85 327.2 323.19 320.14 318.04 318.82 322.49 325.25 327.12 330.01 333.93 335.65 335.17 335.6 336.93 336.35 333.88 333.2 334.33 337.06 341.41 343.15 342.27 339.64 335.23 333.83 335.43 336.76 337.82 335.17 328.82 323.1 317.99 314.46 312.52 316.52 326.45 327.94 320.99 317.59 317.76 323.93 336.08 341.99 341.66 337.66 330 322.87 316.27 313.43 314.35 314.55 314.02 315.14 317.91 320.71 323.55 333.17 349.58 356.48 353.89 351.62 349.67 347.36 344.68 344.42 346.57 349.76 354.01 361.65 372.7 379.11 380.86 377.77 369.84 364.91 362.97 364.22 368.64 375.45 384.63 389.21 389.18 388.59 387.42 397.04 417.42 422.88 413.4 404.38 395.83 395.81 404.34 409.76 412.09 414.46 416.86 415.61 410.7 406.82 403.96 403.63 405.81 417.5 438.69 446.6 441.22 432.53 420.53 408.53 396.53 392.49 396.39 402.18 409.87 417.29 424.44 429.06 431.15 426.57 415.32 403.7 391.71 380.38 369.72 369.12 378.6 383.7 384.43 384.81 384.86 384.25 383 381.49 379.72 377.03 373.41 372.13 373.2 373.96 374.44 376.02 378.7 381.73 385.11 389.15 393.83 397.2 399.26 398.98 396.36 394.85 394.45 395.04 396.61 396.33 394.19 392.95 392.62 395.14 400.52 400.69 395.66 393.75 394.96 393.81 390.27 390.92 395.75 401.88 409.32 423.55 444.57 443.82 421.31 402.29 386.75 387.77 405.33 405.53 388.37 381.3 384.33 389.37 396.4 401.3 404.04 404.62 403.02 401.32 399.53 400.2 403.32 402.99 399.21 397.73 398.54 397.8 395.51 396.85 401.82 404.8 405.81 405.8 404.77 403.18 401.03 399.1 397.4 398.85 403.46 407.24 410.21 408.99 403.59 401.17 401.74 402.3 402.84 405.57 410.49 415.98 422.04 421.85 415.43 412.02 411.63 412.02 413.18 413.88 414.11 414.39 414.71 418.72 426.42 431.15 432.92 436.04 440.49 445.92 452.33 454.79 453.3 451.56 449.56 448.06 447.06 448.11 451.18 454.63 458.44 469.39 487.48 504.01 518.99 529.02 534.1 543.59 557.48 552.17 527.66 519.3 527.09 521.64 502.95 495.22 498.45 497.98 493.83 494.31 499.42 507.7 519.14 527.13 531.69 533.79 533.44 536.98
222.55 222.77 224.93 229.01 231.22 231.56 234.35 239.62 242.41 242.73 245.69 251.28 255.83 259.34 270.76 290.09 311.13 333.87 389.85 479.05 511.05 485.84 457.28 425.37 404.12 393.53 369.97 333.46 304.27 282.42 272.95 275.87 304.01 357.37 372.64 349.82 357.01 394.21 416.13 422.76 395.56 334.52 299.03 289.1 280.36 272.82 267.64 264.81 264.25 265.98 266.74 266.53 266.27 265.95 266.21 267.03 266.85 265.67 266.47 269.25 270.6 270.53 271.11 272.34 271.54 268.69 268.81 271.89 275.04 278.26 280.88 282.91 283.7 283.25 279.35 271.98 267.8 266.78 265.74 264.68 263.09 260.96 260.44 261.52 260.5 257.39 255.39 254.5 255.81 259.32 261.28 261.71 260.51 257.7 256.68 257.46 257.79 257.67 258.51 260.3 261.37 261.7 263.04 265.36 265.33 262.95 261.45 260.85 259.59 257.67 256.45 255.93 255.34 254.66 255.7 258.47 261.63 265.17 267.41 268.36 268.67 268.32 266.8 264.1 262.46 261.86 262.1 263.19 262.11 258.88 256.59 255.24 253.57 251.59 250.4 250.01 247.26 242.13 241.99 246.85 247.2 243.05 238.97 234.95 232.32 231.09 230.69 231.11 234.85 241.9 246.1 247.44 248.12 248.13 250.33 254.74 261.66 271.07 268.85 254.98 246.53 243.49 241.71 241.2 241.14 241.53 244.18 249.07 254.03 259.06 256.98 247.81 244.25 246.29 247.99 249.33 249.36 248.06 248.55 250.82 251.19 249.67 250.18 252.74 256.87 262.6 269.59 277.84 280.16 276.54 274.66 274.52 276.62 280.94 286.02 291.87 291.97 286.32 284.19 285.6 287.11 288.73 293.49 301.4 305.78 306.63 308.21 310.52 311.17 310.15 308.49 306.17 304.89 304.64 304.48 304.4 304.59 305.07 307.55 312.05 309.6 300.21 296.94 299.8 301.42 301.83 302.44 303.25 303.75 303.92 304.95 306.85 307.72 307.57 308.27 309.83 312.33 315.77 317.41 317.25 318.29 320.54 321.83 322.15 320.81 317.82 318.74 323.57 325.13 323.42 320.96 317.75 316.92 318.49 320.6 323.25 325.46 327.22 330.02 333.86 335.46 334.8 335.22 336.73 337.09 336.3 336.33 337.16 339.35 342.88 345.14 346.12 344.02 338.85 338.66 343.45 344.34 341.33 335.05 325.5 318 312.54 308.38 305.53 307.94 315.62 316.78 311.44 309.3 310.36 317.57 330.93 338.61 340.6 338.24 331.52 323.66 314.65 309.75 308.96 309.08 310.1 313.53 319.39 324.23 328.05 337.29 351.95 357.03 352.52 348.25 344.23 341.83 341.04 343.79 350.1 353.5 353.99 359.82 371 373.82 368.29 362.78 357.32 353.8 352.22 353.48 357.57 364.05 372.94 375.96 373.13 373.03 375.66 385.97 403.93 406.81 394.61 385.57 379.67 381.21 390.17 396.64 400.62 402.88 403.42 399.48 391.08 388.75 392.49 396.54 400.9 412.07 430.06 435.3 427.79 418.22 406.58 397.6 391.26 390.39 395 400.79 407.75 416.79 427.92 433.02 432.08 425.78 414.14 401.29 387.24 375.82 367.01 367.53 377.39 382.59 383.12 383.35 383.27 382.51 381.09 378.75 375.48 373.19 371.87 372.41 374.81 375.4 374.18 376.04 380.99 384.29 385.96 389.88 396.06 399.48 400.16 398.66 394.98 392.55 391.38 392.4 395.6 395.95 393.45 392.11 391.93 394.26 399.11 399.85 396.48 395.17 395.93 394.25 390.13 390.04 393.97 400.01 408.17 421.49 439.98 439.03 418.66 399.62 381.94 382.36 400.9 402.02 385.7 378.07 379.14 382.88 389.3 393.8 396.39 397.96 398.51 397.7 395.51 395.15 396.6 396.16 393.8 392.67 392.78 393.53 394.94 397.54 401.31 403.75 404.84 404.47 402.64 401.43 400.82 399.3 396.88 398.22 403.33 407.32 410.18 408.61 402.61 400.37 401.88 403.32 404.68 408.6 415.09 420.93 426.11 424.82 417.05 412.92 412.43 412.63 413.52 414.37 415.17 415.9 416.54 420.05 426.43 430.37 431.87 433.79 436.12 439.34 443.43 446.16 447.53 448.39 448.74 448.48 447.61 448.08 449.89 452.01 454.46 466.37 487.75 504.06 515.28 526.04 536.33 548.76 563.34 558.44 534.08 523.49 526.7 521.07 506.63 503.73 512.38 511.86 502.18 501.34 509.33 514.48 516.79 519.46 522.48 524.16 524.5 527.93
223.17 224.78 226.36 227.92 230.17 233.12 236.86 241.38 246.9 253.43 256.72 256.8 262.64 274.26 288.25 304.64 331.92 370.1 440.55 543.27 585.16 566.22 513.46 426.88 369.39 340.98 317.41 298.67 284.14 273.83 277.54 295.28 316.93 342.48 364.33 382.49 396.24 405.59 393.12 358.84 328.4 301.8 283.92 274.76 268.56 265.33 261.44 256.9 256.43 260.05 262.54 263.9 264.97 265.76 266.6 267.48 268.12 268.52 270.13 272.96 274.7 275.33 273.69 269.78 267.47 266.77 267.97 271.07 273.65 275.72 277.98 280.43 282.18 283.22 280.56 274.21 271 270.93 269.04 265.35 261.74 258.23 256.8 257.43 256.95 255.36 253.97 252.78 253.03 254.73 256.61 258.67 258.9 257.3 256.83 257.49 257.68 257.4 257.63 258.37 259.78 261.85 263.88 265.85 266.97 267.23 267.24 266.99 264.85 260.84 258.06 256.51 256.05 256.68 259.13 263.41 266.3 267.81 267.87 266.5 266.83 268.87 268.36 265.31 263.83 263.91 263.02 261.17 259.41 257.76 257.17 257.66 256.01 252.21 249.43 247.65 246.52 246.03 244.12 240.77 240.64 243.74 243.32 239.38 235.71 232.3 232.09 235.09 238.44 242.15 243.64 242.91 243.54 245.52 249.63 255.87 261.97 267.94 263.18 247.7 240.21 240.7 241.63 243 243.77 243.95 244.14 244.35 249.36 259.17 259.31 249.76 245.61 246.85 249 252.05 252.28 249.69 248.37 248.31 248.34 248.46 250.21 253.59 255.23 255.14 259.28 267.66 270.45 267.66 267.38 269.6 272.3 275.49 282.24 292.56 292.72 282.72 280.3 285.45 290.47 295.34 299.24 302.18 304 304.7 305.81 307.31 307.8 307.28 306.66 305.94 304.31 301.77 300.04 299.13 299.23 300.35 301.78 303.52 302.42 298.48 297.37 299.09 301.17 303.62 304.73 304.48 304.08 303.51 306.18 312.07 314.92 314.74 314.8 315.11 316.22 318.12 318.79 318.23 318.54 319.72 320.07 319.61 318.06 315.44 315.99 319.73 318.6 312.61 309.12 308.14 312.13 321.09 324.76 323.13 324.39 328.53 331.05 331.97 332.66 333.14 334.09 335.51 336.87 338.16 339.69 341.47 342.95 344.16 346.49 349.94 350.12 347.01 347.82 352.55 352.54 347.78 339.61 328.01 318.18 310.13 304.88 302.44 303.29 307.43 308.15 305.47 306.32 310.69 318.36 329.33 336.83 340.85 338.41 329.51 320.84 312.41 308.39 308.79 308.94 308.83 314.17 324.94 333.76 340.63 351.53 366.45 366.23 350.87 341.01 336.62 335.41 337.36 345.21 358.96 363.78 359.69 357.32 356.68 354.63 351.2 351.14 354.46 355.16 353.23 351.81 350.92 352.5 356.56 359.54 361.43 366.62 375.12 379.61 380.1 378.52 374.86 373.2 373.53 377.85 386.16 390.81 391.81 393.17 394.89 392.52 386.08 387.73 397.48 404.91 410.03 415.76 422.12 421.56 414.1 405.44 395.6 389.83 388.14 390.1 395.7 401.57 407.7 414.29 421.33 423.16 419.76 414.02 405.94 397.57 388.93 378.2 365.37 364 374.08 379.97 381.66 381.44 379.31 377.84 377.02 376.25 375.52 374.16 372.16 373.76 378.96 379.6 375.68 378.2 387.17 391.96 392.57 395.66 401.24 403.9 403.64 401.67 397.99 394.53 391.3 390.8 393.05 393.67 392.66 392.07 391.91 392.27 393.16 394.97 397.72 398.06 396 393.32 390.02 389.11 390.59 394.76 401.63 406.82 410.34 409.06 403 393.82 381.53 378.12 383.6 384.21 379.96 377.95 378.19 379.11 380.72 382.62 384.81 387.8 391.57 392.52 390.63 389.48 389.06 388.82 388.76 388.96 389.44 391.57 395.36 398.72 401.65 403.14 403.18 401.74 398.79 398.45 400.71 400.36 397.42 397.58 400.83 402.77 403.4 402.16 399.05 399.51 403.54 406.65 408.82 413.97 422.09 425.06 422.88 419.63 415.32 413.01 412.69 413.01 413.97 415.02 416.16 418.56 422.22 425.18 427.44 429.33 430.83 432.15 433.3 436.08 440.48 442.94 443.44 446.38 451.76 454.65 455.04 454.8 453.93 453.4 453.23 462.3 480.62 495.8 507.84 520.92 535.05 551.27 569.56 573.85 564.13 550.39 532.63 519.75 511.76 515.84 532.01 531.04 512.93 511.1 525.55 530.6 526.24 522.42 519.13 524.19 537.61 541.8
224.59 226.71 228.15 228.9 231.93 237.24 241.72 245.38 253.02 264.65 272.66 277.03 285.15 297 311.1 327.44 359.53 407.37 478.69 573.49 600.84 560.73 495.58 405.39 343.43 309.71 288.2 278.91 275.96 279.35 291.72 313.07 331.98 348.48 364.54 380.19 384.27 376.79 352.32 310.86 285.91 277.46 270.02 263.57 259.92 259.06 257.32 254.68 254.97 258.18 260.8 262.84 264.25 265.03 265.69 266.23 267.3 268.9 270.57 272.32 273.87 275.22 273.18 267.74 265.48 266.39 268 270.31 272.05 273.23 275.15 277.8 279.93 281.52 280.07 275.57 273.03 272.45 269.89 265.36 260.96 256.68 254.71 255.05 254.75 253.81 252.85 251.87 251.89 252.91 254.23 255.85 256.58 256.43 256.59 257.05 257.19 257 256.92 256.95 257.98 259.99 264.09 270.25 273.6 274.13 273.12 270.57 267.27 263.24 260.47 258.97 258.7 259.66 262.04 265.85 268.05 268.64 268.05 266.26 266.94 270.08 270.41 267.92 266.35 265.68 263.6 260.1 257.82 256.76 256.5 257.05 255.59 252.13 249.17 246.72 246.27 247.82 245.85 240.37 239.74 243.97 244.39 241 237.12 232.75 232.65 236.81 239.57 240.92 241.07 240.02 240.51 242.54 246.19 251.45 256.03 259.93 255.65 243.17 238.87 242.73 245.64 247.6 248.21 247.45 245.84 243.36 246.49 255.23 256.14 249.22 246.19 247.05 249.47 253.45 254.09 251.38 249.74 249.19 249.05 249.34 251 254.03 254.29 251.79 253.81 260.35 263.39 262.92 263.61 265.46 268.51 272.75 281.13 293.66 293.31 280.09 276.88 283.7 290.33 296.78 299.89 299.66 300.43 302.19 303.39 304.03 304.19 303.88 303.76 303.82 302.19 298.86 296.77 295.93 296.44 298.28 299.53 300.18 300.07 299.2 298.74 298.7 300.09 302.91 304.6 305.15 305.66 306.12 309.16 314.77 317.56 317.54 317.56 317.63 317.99 318.66 318.93 318.8 318.46 317.91 316.6 314.52 312.74 311.26 313.26 318.75 318.29 311.89 308.84 309.17 314.09 323.62 327.16 324.7 325.01 328.09 329.75 329.98 330.42 331.06 332.6 335.04 337.46 339.86 342.08 344.13 345.52 346.27 348.05 350.89 351.72 350.56 351.13 353.43 352.34 347.86 339.57 327.47 316.93 307.94 302.54 300.74 300.88 302.97 303.65 302.94 306.11 313.18 320.39 327.77 334.17 339.59 337.39 327.57 318.81 311.11 307.85 309.02 309.48 309.23 314.43 325.07 335.03 344.32 354.54 365.71 362.6 345.22 335.01 331.98 332.75 337.3 346.06 359.04 363.01 357.98 352.64 346.98 343.36 341.8 344.01 350.02 352.52 351.53 350.43 349.22 349.91 352.5 356.76 362.7 370.85 381.21 381.22 370.9 365.21 364.17 365.09 367.98 373 380.16 384.56 386.21 390.66 397.91 396.34 385.95 386.17 397 403.74 406.38 410.23 415.3 414.31 407.25 398.39 387.72 384.01 387.26 391.69 397.29 402.38 406.97 411.13 414.86 415.66 413.53 408.95 401.94 395.71 390.26 381.6 369.72 366.05 370.59 375.39 380.47 381.47 378.4 375.84 373.81 373.33 374.4 374.14 372.54 374.53 380.13 381.78 379.48 382.43 390.62 395.23 396.25 399.1 403.77 405.92 405.56 404.16 401.74 399.7 398.07 396.76 395.79 395.25 395.14 395.22 395.49 395.54 395.37 397.18 400.96 400.86 396.9 393.05 389.33 387.67 388.09 390.36 394.51 395.58 393.6 392.91 393.53 389.55 380.97 376.34 375.65 375.98 377.32 377.92 377.79 377.42 376.83 377.26 378.7 381.39 385.31 386.73 385.65 384.69 383.87 384.64 387.01 388.21 388.23 390.54 395.13 398.19 399.73 400.68 401.07 400.63 399.36 399.44 400.86 400.31 397.77 397.27 398.79 399.39 399.06 398.74 398.42 400.04 403.61 406.81 409.64 415.35 423.95 426.14 421.94 418.57 416.05 414.23 413.1 413.72 416.1 417.69 418.49 419.39 420.4 422.58 425.92 427.94 428.64 429.52 430.57 432.99 436.78 440.64 444.58 449.57 455.59 459.02 459.86 459.22 457.1 455.41 454.14 460.14 473.42 485.19 495.45 508.39 523.99 541.79 561.81 573.96 578.24 567.49 541.72 525.91 520.07 527.06 546.9 547.62 529.23 524.76 534.21 535.62 529.01 525.85 526.16 531.02 540.46 542.85
226.8 228.56 230.28 231.96 236.51 243.92 248.95 251.6 260.75 276.41 293.49 312 323.35 327.57 339.29 358.51 393.97 445.68 504.26 569.71 558.09 469.38 403.65 360.89 326.25 299.72 282.36 274.17 279.71 299 315.5 329.22 349.17 375.36 373.27 342.92 321.1 307.8 293.7 278.81 268.08 261.52 257.34 255.53 254.43 254.01 255.26 258.17 259.88 260.39 261.54 263.35 264.08 263.75 263.48 263.28 264.39 266.81 267.79 267.33 268.12 270.19 269.56 266.24 265.57 267.56 268.91 269.61 270.24 270.79 272.39 275.03 276.95 278.15 277.85 276.05 273.89 271.35 268.3 264.73 260.73 256.31 254.2 254.38 253.89 252.74 252.04 251.77 252.38 253.86 254.15 253.24 253.56 255.09 255.95 256.14 256.32 256.49 256.4 256.04 255.95 256.12 263.66 278.56 285.23 283.65 279.11 271.59 266.84 264.85 263.68 263.3 263.28 263.6 264.44 265.8 266.88 267.68 267.94 267.66 268.99 271.95 272.92 271.92 270 267.17 263.83 259.99 257.34 255.89 254.57 253.4 252.33 251.34 249.64 247.22 246.5 247.48 247.2 245.65 244.5 243.74 242.17 239.79 236.55 232.45 232.36 236.28 238.22 238.2 238.38 238.78 239.05 239.19 240.01 241.5 243.84 247.05 246.24 241.39 242.51 249.58 253.75 255 254.43 252.03 249.26 246.1 245.42 247.22 247.47 246.19 245.99 246.88 249.4 253.53 254.77 253.11 252.67 253.45 253.33 252.31 252.55 254.04 254.04 252.55 253.18 255.93 258.98 262.32 263.37 262.13 265.24 272.71 282.69 295.16 293.74 278.42 273.95 280.33 286.7 293.05 295.44 293.84 295.07 299.1 300.97 300.68 300.34 299.95 299.77 299.81 298.52 295.91 294.67 294.83 296.22 298.85 300.79 302.03 302.56 302.36 301.06 298.63 298.18 299.7 302.05 305.25 308.49 311.75 313.91 314.97 315.65 315.97 316.54 317.37 317.65 317.39 317.82 318.94 318.05 315.12 311.41 306.9 304.86 305.29 310.55 320.64 324.21 321.27 320.14 320.83 322.82 326.1 327.81 327.96 327.33 325.92 326.11 327.91 328.73 328.57 330.77 335.3 338.85 341.4 343.5 345.15 347.05 349.21 349.84 348.95 348.84 349.51 348.59 346.1 343.76 341.56 334.94 323.89 314.24 305.97 301.37 300.42 300.71 302.24 303.28 303.85 308.69 317.82 323.68 326.25 330.64 336.83 335.19 325.71 317.56 310.75 308.11 309.66 310.72 311.3 314.33 319.8 328.06 339.09 346.32 349.72 346.13 335.54 330.27 330.31 333.84 340.86 346.37 350.36 351.19 348.85 345.76 341.9 340.01 340.09 341.41 343.98 345.88 347.14 349.33 352.47 356.27 360.73 367.62 376.95 385.72 393.93 390.79 376.3 366.88 362.52 361.24 363.03 366.67 372.17 377.89 383.83 395.36 412.5 410.94 390.69 384.07 391.07 393.03 389.95 395.48 409.61 413.53 407.24 397.05 382.93 380.12 388.62 395.16 399.75 403.22 405.55 407.31 408.49 410.51 413.36 410.58 402.16 395.71 391.24 386.02 380.06 373.69 366.92 368.87 379.54 383.42 380.53 376.54 371.45 369.98 372.13 373.14 373 374.72 378.3 381.92 385.58 388.72 391.33 394.09 397.01 400.19 403.64 405.55 405.91 406.14 406.22 408.07 411.69 410.28 403.82 400.7 400.89 401.54 402.66 404.06 405.75 406.46 406.19 403.58 398.62 393.45 388.05 385.72 386.45 386.81 386.79 387.77 389.77 390.59 390.24 386.79 380.24 377 377.07 377.33 377.77 377.97 377.93 377.81 377.62 377.7 378.07 378.74 379.72 380.33 380.56 380.78 381.01 383.6 388.55 390.4 389.15 390.44 394.27 395.97 395.55 396.39 398.49 401.14 404.35 404.4 401.29 399.14 397.93 397.29 397.22 397.17 397.16 398.34 400.72 401.97 402.09 403.81 407.13 412.74 420.66 424.18 423.29 421.65 419.24 416.58 413.66 414.77 419.91 422.37 422.16 418.4 411.09 412.25 421.86 426.22 425.3 425.88 427.94 430.08 432.3 439.26 450.96 457.95 460.24 461.62 462.09 461.35 459.41 458.02 457.18 459.88 466.13 472.22 478.13 488.44 503.13 520.35 540.07 558.76 576.42 574.82 553.97 539.55 531.57 537.4 557.04 561.6 551.1 542.33 535.29 529.54 525.08 529.75 543.55 544.65 533.05 531.08
228.91 229.74 232.06 235.87 243.12 253.81 260.78 264.04 279.7 307.77 329.25 344.15 361.96 382.69 393.66 394.86 414.54 452.7 488.42 521.69 492.43 400.62 345.66 327.56 308.69 289.05 279 278.53 290.51 314.92 329.56 334.41 345.36 362.43 349.75 307.32 280.44 269.1 262.98 262.06 259.01 253.81 251.43 251.86 252.01 251.89 253.8 257.74 260.1 260.87 261.79 262.84 263.22 262.92 262.42 261.72 262.54 264.89 265.77 265.18 265.46 266.61 266.15 264.06 265.03 269.03 270.89 270.59 270.41 270.33 271.65 274.37 276.21 277.18 277.2 276.27 273.61 269.23 265.91 263.65 260.73 257.13 254.86 253.91 252.98 252.07 251.64 251.68 252.45 253.95 254.35 253.66 253.84 254.91 255.53 255.71 255.8 255.79 255.92 256.2 255.95 255.18 262.03 276.5 283.6 283.31 278.74 269.88 265.49 265.58 265.79 266.12 265.9 265.13 265.26 266.3 267.42 268.61 269.5 270.09 271.39 273.41 274.35 274.21 272.21 268.36 264.75 261.4 258.93 257.36 255.35 252.9 251.13 250.05 248.44 246.3 245.16 245.03 245.17 245.6 244.68 242.41 240.5 238.97 236.7 233.71 233.58 236.31 237.53 237.25 237.34 237.78 237.89 237.67 237.44 237.21 238.04 239.92 241.04 241.41 245.11 252.14 256.46 258.05 257.64 255.21 252.28 248.83 247.07 246.99 246.87 246.73 247.21 248.33 250.56 253.92 255.35 254.87 255.53 257.34 257.18 255.05 254.48 255.47 255.2 253.67 253.16 253.69 256.17 260.6 262.31 261.29 263.87 270.04 278.07 287.94 287.38 276.39 273.82 279.68 285.15 290.23 291.72 289.62 290.84 295.4 297.63 297.54 297.54 297.62 297.19 296.25 295.04 293.54 293.27 294.21 296.05 298.79 300.86 302.27 302.89 302.7 301.55 299.44 298.71 299.36 301.42 304.87 308.63 312.68 314.54 314.21 314.62 315.78 316.77 317.57 316.17 312.56 312.7 316.6 316.79 313.28 309.73 306.15 305.22 306.92 312.7 322.54 326.41 324.31 323.85 325.04 325.62 325.6 325.85 326.36 325.55 323.42 323.21 324.94 326.09 326.65 329.6 334.93 338.97 341.72 343.7 344.93 346.44 348.24 348.42 346.97 346.55 347.14 345.62 341.98 338.62 335.55 330.23 322.67 314.5 305.73 300.69 299.39 299.31 300.45 301.48 302.39 307.27 316.1 320.56 320.63 322.98 327.63 326.56 319.79 314.22 309.86 308.42 309.92 311.25 312.42 313.9 315.7 322.88 335.44 340.95 339.41 335.76 329.99 327.82 329.24 332.93 338.9 341.89 341.9 341.64 341.12 339.9 337.99 337.83 339.41 341.21 343.22 345.43 347.83 350.93 354.72 359.76 366.02 374.75 385.95 393.54 397.53 391.86 376.53 365.91 359.99 358.61 361.77 365.48 369.74 374.67 380.25 391.32 407.87 407.33 389.7 382.41 385.47 385.32 381.97 386.48 398.88 402.81 398.28 391.35 382.02 381.95 391.14 397 399.53 400.99 401.36 402.29 403.78 406.15 409.39 407.54 400.61 395.32 391.7 388.12 384.59 376.47 363.77 364.41 378.39 383.71 380.39 376.63 372.43 371.53 373.91 374.77 374.11 374.85 376.99 380.67 385.88 388.92 389.78 391.9 395.27 398.3 400.99 402.48 402.78 403.66 405.14 409.53 416.83 417.29 410.93 407.66 407.51 407.59 407.9 408.6 409.67 408.6 405.37 402 398.5 394.39 389.68 387.23 387.03 386.11 384.47 384.89 387.38 387.72 385.9 383.09 379.28 377.53 377.84 378 378 378 378 378 378.01 377.94 377.81 377.45 376.85 378.4 382.12 383.62 382.91 385.8 392.28 394.49 392.42 392.84 395.74 395.93 393.42 394.06 397.84 402.06 406.72 406.77 402.22 399.61 398.93 398.5 398.33 398.7 399.59 401.37 404.03 404.35 402.32 403.16 406.86 413.65 423.51 428.18 427.66 425.3 421.09 418.19 416.57 418.25 423.24 425.47 424.96 421.52 415.17 415.41 422.22 425.04 423.88 424.79 427.8 430.7 433.52 441.44 454.47 461.8 463.43 464.7 465.61 464.74 462.1 460.69 460.52 461.13 462.53 465.29 469.4 478.88 493.73 509.84 527.22 547.98 572.12 577.61 564.43 554.26 547.08 551.17 566.52 569.58 560.35 550.41 539.78 533.99 533.06 538.71 550.95 551.16 539.32 537.28
230.91 230.25 233.49 240.62 251.77 266.92 277.22 282.68 309.84 358.72 379.94 373.49 400.97 462.38 474.22 436.49 421.23 428.43 431.16 429.43 403.86 354.46 321.64 305.39 290.75 277.7 278.12 292 308.34 327.13 333.89 328.62 320.55 309.68 293.96 273.4 262.31 260.71 260.15 260.63 258.69 254.33 252.29 252.55 252.68 252.69 252.93 253.38 255.62 259.65 261.55 261.33 261.66 262.53 262.49 261.54 261.76 263.13 264.51 265.9 265.89 264.49 262.93 261.21 263.83 270.8 273.95 273.26 272.56 271.84 272.93 275.82 277.71 278.61 278.11 276.21 272.2 266.08 262.73 262.15 260.95 259.14 256.7 253.64 252.01 251.79 251.66 251.6 252.1 253.18 254.85 257.1 257.44 255.88 255.32 255.77 255.64 254.92 255.51 257.42 257.97 257.16 259.19 264.07 268.71 273.12 272.03 265.43 263.23 265.4 266.8 267.42 266.56 264.23 264.5 267.34 269.66 271.44 272.74 273.56 274.14 274.47 274.69 274.78 272.96 269.23 266.35 264.32 262.6 261.19 258.83 255.53 252 248.25 245.57 243.97 242.26 240.45 239.78 240.24 240.3 239.97 239.38 238.53 237.58 236.53 236.3 236.89 237.48 238.08 237.93 237.04 237.05 237.97 238.48 238.6 238.62 238.53 240.06 243.22 246.67 250.41 253.77 256.76 257.83 256.99 254.9 251.56 251.44 254.54 254.34 250.84 249.85 251.38 252.97 254.61 255.84 256.64 258.31 260.86 260.61 257.56 256.8 258.32 257.77 255.15 253.78 253.65 254.98 257.76 260.42 262.95 264.39 264.74 267.28 271.99 274.23 274 276.51 281.76 285.7 288.32 288.75 286.99 287.76 291.08 293.36 294.6 295.77 296.88 296 293.14 291.72 291.76 292.55 294.1 295.94 298.09 299.74 300.9 301.06 300.21 300.23 301.13 301.69 301.91 302.68 304.01 306.08 308.91 311.05 312.5 314.48 316.97 318.22 318.23 313.55 304.17 303.58 311.78 314.71 312.37 311.56 312.29 313.82 316.16 319.7 324.43 324.87 321.01 319.98 321.79 322.5 322.13 321.26 319.9 319.67 320.58 321.05 321.09 322.51 325.3 329.11 333.93 337.84 340.83 342.7 343.46 343.68 343.35 343.77 344.95 344.84 343.46 342.2 341.06 336.93 329.82 325.44 323.81 317.73 307.21 300.52 297.64 296.67 297.6 298.24 298.58 301.84 308.02 311.04 310.9 311.21 311.97 311.51 309.82 308.79 308.43 308.77 309.81 311.08 312.58 313.14 312.76 319.5 333.34 338.43 334.76 331.47 328.55 327.65 328.77 330.02 331.41 332.62 333.66 334.38 334.77 335.06 335.25 336.82 339.77 343.41 347.76 351.16 353.62 355.23 355.97 360.36 368.38 378.16 389.7 394.32 392.01 384.43 371.58 362.3 356.58 357.22 364.2 369.41 372.87 374.89 375.48 378.53 384.04 385.52 382.97 381.19 380.19 380.6 382.42 383.26 383.11 382.15 380.37 381.31 384.99 389.49 394.81 397.19 396.63 395.7 394.41 396.09 400.73 402.57 401.61 399.85 397.29 394.55 391.63 387.89 383.31 374.4 361.14 362.01 377.02 382.34 377.97 376.11 376.76 377.97 379.74 379.04 375.86 374.92 376.22 378.04 380.37 383.01 385.97 388.65 391.05 393.44 395.82 396.72 396.14 396.73 398.5 404.08 413.48 417.82 417.1 416.16 414.99 413.35 411.23 409.16 407.13 403.58 398.5 396.15 396.52 395.88 394.22 392.21 389.83 388.28 387.56 386.95 386.44 384.29 380.52 378.45 378.07 377.91 377.97 378 378 378 378 378 378 377.98 377.94 377.5 376.67 380.95 390.32 393.19 389.56 391.23 398.19 400.47 398.04 397.74 399.54 398.08 393.35 393.7 399.13 403.39 406.48 406.56 403.65 401.71 400.75 400.89 402.15 403.97 406.36 407.82 408.35 407.17 404.29 404.84 408.84 418.05 432.49 438.15 435.03 429.52 421.62 419.05 421.83 424.18 426.1 427 426.89 428.76 432.64 432.05 426.99 424.43 424.35 426.26 430.14 434.86 440.41 447.16 455.11 461.11 465.16 468.27 470.43 469.39 465.15 463.41 464.16 463.9 462.62 464.41 469.27 479.72 495.76 510.27 523.25 541.61 565.35 575.85 573.12 570.04 566.62 568.38 575.34 571.54 556.98 549.03 547.68 548.98 552.93 552.73 548.37 550.55 559.28 561.44
232.07 232.33 236.88 245.71 259.62 278.59 294.14 306.28 343.24 405.03 435.05 433.3 450.77 487.45 479.67 427.44 396.72 387.52 375.05 359.29 339.92 316.93 299.64 288.04 278.5 271 277.45 297.87 313.84 325.37 324.85 312.27 296.46 277.42 264.33 257.18 254.84 257.29 259.26 260.75 259.24 254.73 252.6 252.86 252.96 252.92 253.1 253.49 255.27 258.42 260.02 260.08 260.57 261.48 261.4 260.31 260.04 260.61 261.88 263.86 264.3 263.2 261.4 258.88 260.7 266.85 270.54 271.76 272.37 272.37 273.06 274.44 276.12 278.08 278.51 277.41 273.19 265.84 261.81 261.09 259.94 258.34 256.37 254.02 252.86 252.89 252.74 252.4 252.86 254.11 255.98 258.47 258.55 256.21 255.38 256.05 255.94 255.05 255.57 257.49 258.16 257.57 257.73 258.63 261.74 267.05 268.11 264.93 264.54 266.93 268.5 269.24 268.65 266.74 266.83 268.93 270.64 271.96 273.53 275.36 275.73 274.67 274.5 275.23 273.6 269.61 266.41 264.01 262.05 260.55 258.52 255.97 252.2 247.2 244.32 243.54 242.47 241.12 240 239.1 238.76 238.96 239.27 239.68 239.44 238.56 237.83 237.27 237.31 237.96 237.68 236.45 236.5 237.82 238.92 239.8 240.08 239.76 241.56 245.47 248.64 251.06 253.54 256.09 257.66 258.24 256.77 253.24 253.25 256.81 256.87 253.44 252.81 254.99 256.33 256.82 258 259.86 262.35 265.48 265.3 261.8 260.83 262.41 261.83 259.1 257.47 256.95 257.8 260.03 262.32 264.66 264.92 263.12 263.35 265.61 269.27 274.32 278.67 282.32 284.36 284.81 284.84 284.43 285.58 288.27 289.9 290.49 291.92 294.21 294.72 293.46 292.1 290.64 291.08 293.43 295.87 298.39 299.73 299.87 299.63 299 299.34 300.67 301.41 301.56 302.48 304.15 305.85 307.57 308.18 307.68 308.74 311.37 312.68 312.67 309.13 302.05 303.18 312.51 316.33 314.61 314.65 316.43 317.93 319.14 321.2 324.09 322.91 317.66 316.05 318.08 319.12 319.18 318.21 316.21 315.8 316.98 317.35 316.93 318.73 322.76 326.95 331.3 334.94 337.88 339.64 340.22 339.75 338.26 339 341.98 341.89 338.72 337.3 337.63 333.23 324.1 318.86 317.5 312.76 304.62 299.23 296.59 295.54 296.09 296.62 297.15 299.34 303.21 305.32 305.68 305.26 304.05 304.14 305.52 306.86 308.14 309.7 311.53 312.8 313.52 313.59 313.02 318.38 329.7 333.7 330.41 328.22 327.12 327.29 328.74 329.04 328.19 328.44 329.79 331.25 332.79 334.59 336.62 339.7 343.81 350.49 359.71 364.29 364.24 364.39 364.75 367.29 372.03 378.06 385.4 386.07 380.06 372.89 364.55 359.07 356.43 358.8 366.2 370.79 372.57 372.21 369.7 369.03 370.22 373.2 378 379.12 376.57 376.37 378.52 377.37 372.91 370.84 371.15 375.25 383.14 389.66 394.81 395.9 392.94 390.95 389.92 392.36 398.26 399.46 395.96 393.84 393.1 391.85 390.08 387.08 382.83 375.65 365.54 365.1 374.33 378.18 376.65 376.6 378.02 380 382.54 381.89 378.05 376.38 376.87 377.4 377.97 380.66 385.5 388.66 390.16 391.26 391.95 392.5 392.92 394.2 396.34 401.33 409.17 413.85 415.35 415.67 414.8 413.04 410.4 407.59 404.63 400.68 395.74 394.08 395.69 395.93 394.79 392.3 388.44 387.23 388.67 388.5 386.71 383.99 380.34 378.37 378.08 377.95 377.98 378 378 378 378 378 378 378 378 377.51 376.52 382.43 395.23 399.02 393.82 394.67 401.57 403.02 399.01 398.41 401.2 400.36 395.86 395.69 399.85 403.37 406.24 406.79 405 403.56 402.46 402.9 404.89 407.68 411.28 412.71 411.97 409.86 406.38 406.61 410.55 419.64 433.86 439.34 436.07 430.76 423.42 421.97 426.4 428.3 427.65 428.19 429.9 433.5 438.98 438.32 431.53 428.07 427.94 428.89 430.94 435.6 442.88 449.37 455.09 460.21 464.73 471.8 481.42 481.35 471.59 466.24 465.28 463.02 459.45 459.95 464.52 473.08 485.61 497.53 508.83 524.18 543.58 556.46 562.82 567.62 570.87 575.71 582.15 578.64 565.2 559.24 560.77 565.79 574.29 572.26 559.68 560.31 574.16 576.22
232.4 235.99 242.24 251.14 266.67 288.83 311.55 334.85 379.89 446.68 494.59 523.59 511.37 457.91 410.03 367.71 341.03 329.98 320.07 311.28 300.61 288.03 279.67 275.52 271.94 268.95 277.01 296.14 307.02 309.65 302.43 285.36 273.11 265.66 260.85 258.68 258.02 258.86 260.33 262.43 260.65 254.99 252.37 252.79 252.85 252.57 254.31 258.07 259.03 257.19 257.21 259.09 259.95 259.79 259.15 258.01 257.41 257.33 257.88 259.07 260.69 262.75 261.55 257.07 255.62 257.18 260.67 266.09 269.84 271.91 272.05 270.25 271.43 275.59 278.4 279.86 276.57 268.52 263.16 260.5 257.69 254.74 253.86 255.05 255.55 255.36 254.88 254.1 254.72 256.74 257.75 257.77 257.15 255.91 255.71 256.55 256.71 256.2 256.1 256.4 256.51 256.42 257.65 260.2 262.68 265.09 266.99 268.38 269.43 270.16 270.87 271.59 272.17 272.63 272.26 271.06 270.37 270.19 271.89 275.48 276.18 274 273.79 275.57 274.13 269.5 264.95 260.47 257.3 255.43 254.41 254.22 251.72 246.91 244.67 245.02 245.8 247.02 245.82 242.2 240.05 239.39 240.18 242.43 242.3 239.79 238.17 237.45 237.03 236.91 236.57 236.01 236.23 237.23 238.75 240.79 242.42 243.62 245.54 248.17 251.02 254.1 255.78 256.06 257.12 258.98 257.89 253.87 252.51 253.8 254.47 254.52 256.08 259.17 260.66 260.54 261.84 264.53 267.66 271.21 271.25 267.76 266.59 267.75 267.39 265.51 264.25 263.59 264.65 267.42 268.01 266.42 265.47 265.17 266.28 268.8 272.5 277.37 280.32 281.35 281.15 279.72 279.99 281.96 284.28 286.95 287.26 285.21 285.99 289.6 293.35 297.23 296.17 290.17 288.86 292.22 295.83 299.7 300.82 299.18 298.6 299.07 298.89 298.06 297.87 298.31 300.79 305.31 307.94 308.66 305.93 299.74 297.42 298.98 300.14 300.9 302.92 306.18 311.48 318.81 321.66 320.02 319 318.59 317.55 315.88 317.19 321.5 320.52 314.26 312.06 313.91 315.48 316.75 316.69 315.3 313.94 312.61 312.12 312.45 314.75 319.02 323.11 327.04 330.29 332.89 334.52 335.19 334.67 332.96 334.1 338.08 337.7 332.93 330.93 331.68 327.51 318.41 310.49 303.75 299.58 297.96 296.85 296.24 295.93 295.91 296.62 298.08 299.76 301.67 303.4 304.97 305.12 303.85 304.45 306.91 308.42 308.98 311.19 315.06 316.41 315.24 315.26 316.46 319.54 324.49 326.77 326.36 326 325.68 326.74 329.15 329.99 329.24 329.34 330.3 332.24 335.18 338.47 342.1 346.47 351.56 362.43 379.08 384.83 379.69 378.43 381.05 380.56 376.97 374.47 373.06 368.8 361.71 357.26 355.47 356.22 359.52 363.37 367.77 369.6 368.85 366.62 362.89 362.82 366.41 370.39 374.78 376.19 374.61 372.63 370.26 368.81 368.27 368.88 370.63 373.17 376.48 382.47 391.11 393.11 388.46 386.72 387.9 391.12 396.37 396.8 392.42 389.5 388.04 387.23 387.05 385.69 383.15 380.24 376.97 373.66 370.31 371.23 376.42 378.08 376.22 377.62 382.29 383.31 380.69 379.24 378.94 378.75 378.67 381.87 388.35 391.93 392.6 391.75 389.38 389.83 393.11 396.06 398.66 401.28 403.92 405.38 405.68 406.19 406.92 406.65 405.39 403.9 402.16 399.9 397.09 395.79 396 394.53 391.38 387.5 382.88 382.98 387.81 389.56 388.21 386.81 385.34 382.84 379.29 377.63 377.87 377.99 378 378 378 378 378 378 378 377.46 376.38 382.84 396.83 401.11 395.68 396.12 402.42 402.16 395.33 394.85 400.72 402.75 400.93 400.02 400.01 402.01 406.01 407.44 406.29 405.16 404.05 404.52 406.56 409.84 414.35 416.04 414.9 412.41 408.58 408.45 412.01 418.4 427.62 431.74 430.77 429.03 426.51 426.93 430.27 430.59 427.89 429.03 434 435.72 434.19 434.22 435.83 435.96 434.62 432.7 430.18 432.92 440.91 448.08 454.42 459.12 462.15 475.31 498.58 500.62 481.43 469.18 463.87 458.48 453.02 451.91 455.16 458.95 463.27 471.61 483.96 495.69 506.8 519.41 533.54 547.02 559.85 573.15 586.92 590.87 585 581.06 579.05 584.42 597.15 597.3 584.87 580.43 583.98 581.63
236.1 243.41 251.89 261.54 279.91 307.01 339.9 378.6 431 497.09 539.29 557.6 521.47 430.9 368.77 335.07 312.06 299.72 290.39 284.07 277.67 271.19 268.08 268.33 268.41 268.32 275.09 288.73 294.17 291.43 283.07 269.11 261.49 260.21 259.77 260.16 260.06 259.48 260.62 263.48 261.68 255.22 252.24 252.75 252.82 252.44 254.67 259.5 260.57 257.87 257 257.96 257.81 256.55 256.28 257.01 257.15 256.71 256.77 257.32 258.4 260 258.97 255.28 253.26 252.9 256.36 263.63 268 269.48 268.97 266.47 267.28 271.41 274.65 277 275.02 268.7 263.64 259.84 256.81 254.55 254.82 257.61 258.31 256.9 256.42 256.87 257.99 259.78 259.56 257.35 256.12 255.88 256.14 256.89 257.66 258.46 258.06 256.46 256.42 257.96 259.82 262 263.33 263.81 264.99 266.88 268.24 269.08 269.78 270.34 271.57 273.46 273.63 272.09 271.15 270.81 272.65 276.7 277.32 274.51 274 275.76 274.3 269.61 264.74 259.7 256.45 255 253.76 252.73 250.55 247.22 245.73 246.08 247.13 248.87 247.83 244 241.6 240.65 241.55 244.29 244.34 241.7 239.37 237.35 236.38 236.49 236.53 236.51 236.93 237.79 239.47 241.96 244.4 246.78 248.46 249.42 251.47 254.61 255.94 255.48 256.5 259.03 258.95 256.25 254.98 255.13 255.68 256.63 258.28 260.64 262.61 264.18 266.38 269.21 272.01 274.78 274.73 271.86 270.94 271.97 271.99 270.99 270.03 269.1 269.67 271.76 271.89 270.08 269.33 269.62 270.45 271.82 274.3 277.89 279.43 278.91 278.23 277.37 278.01 280.13 282.56 285.3 285.26 282.44 283.31 287.89 292.35 296.7 295.76 289.54 288.1 291.45 295.23 299.43 300.35 297.98 297.1 297.68 297.81 297.49 297.48 297.79 300.29 304.99 306.59 305.08 302.04 297.46 296.02 297.71 298.74 299.13 303.01 310.38 316.76 322.14 324.07 322.54 320.62 318.3 315.79 313.08 314.24 319.27 318.79 312.79 310.13 310.8 312.06 313.91 315.07 315.53 313.22 308.14 306.81 309.24 312.65 317.02 320.41 322.81 324.97 326.89 328.91 331.05 331.15 329.24 329.35 331.47 329.77 324.24 321.11 320.36 316.7 310.11 303.49 296.84 294.03 295.03 295.55 295.59 295.54 295.41 296.42 298.56 300.1 301.05 302.26 303.75 304.18 303.56 304.45 306.86 308.42 309.13 311.88 316.68 318.14 316.26 316.52 318.91 320.81 322.23 323.83 325.64 327.29 328.8 329.66 329.86 330.42 331.32 332.09 332.71 334.61 337.78 340.85 343.82 347.44 351.7 361.79 377.71 383.06 377.86 376.96 380.37 380.88 378.47 373.71 366.6 359.39 352.09 348.95 349.95 353.37 359.22 363.03 364.78 365.63 365.57 363.86 360.52 361.03 365.39 369.36 372.93 374.05 372.7 369.95 365.78 364.08 364.86 365.99 367.48 369.25 371.31 376.78 385.67 387.7 382.85 382.17 385.66 389.15 392.64 392.18 387.75 384.08 381.16 380.43 381.89 382.26 381.56 380.87 380.18 376.51 369.84 369.85 376.56 378.4 375.37 375.97 380.22 381.58 380.06 379.68 380.41 380.72 380.6 383.14 388.33 391.12 391.52 390.29 387.42 388.19 392.61 396.29 399.21 400.56 400.33 399.85 399.1 399.66 401.54 402.2 401.63 400.95 400.17 399.3 398.33 397.04 395.43 392.39 387.91 383.74 379.86 380.67 386.15 388.81 388.62 388.09 387.19 384.37 379.61 377.4 377.73 377.92 377.98 378.01 378 378 378 378 378 377.46 376.39 382.74 396.52 401.83 398.67 398.24 400.52 399.21 394.31 394.23 398.96 401.86 402.93 402.94 401.89 402.64 405.18 406.41 406.33 406.18 405.97 406.91 409 412.09 416.18 417.74 416.77 414.56 411.12 410.97 414.1 418.76 424.93 428.74 430.18 430.37 429.32 430.01 432.45 432.36 429.73 430.98 436.1 436.97 433.59 433.85 437.75 438.63 436.48 433.55 429.83 431.7 439.17 446 452.2 456.65 459.35 471.84 494.13 495.87 477.07 464.83 459.16 453.82 448.83 447.47 449.74 452.32 455.22 462.57 474.39 481.97 485.3 496.86 516.66 532.04 543 559.48 581.47 593.81 596.47 595.34 590.42 591.99 600.03 600.25 592.63 586.75 582.6 578.28
