192 188.750106812 186.453643799 184.056808472 175.029602051 181.808914185 189.059539795 195.323196411 199.829025269 192.713287354 187.586288452 185.961288452 183.931838989 187.409606934 191.390151978 188.033782959 191.842514038 194.984191895 186.481643677 186.073272705 185 189.924575806 195.889358521 197.896240234 188.150848389 188.037719727 190.962280273 190.111709595 188.326293945 188.599472046 194.823623657 192.047775269 198.418426514 200.625701904 194.12890625 192.037719727 201.64289856 196.305603027 197 198.491271973 202.55770874 201.419464111 199.963562012 203.371749878 207.47253418 205.732635498 205.050689697 209.724639893 214.05418396 211.962280273 213.915802002 216.936752319 212.053375244 216.153442383 217.108413696 217.629714966 216.986129761 216.924575806 217.187713623 222.021957397 221.346008301 227.058517456 234.083099365 241.104644775 243 244.961868286 249.028259277 246.525024414 252.659332275 255.963577271 259.962280273 251.983413696 253.102554321 240.996841431 242.986953735 246.668243408 245.995071411 248.252807617 251.508468628 256.357910156 260.962280273 260.969024658 265.114135742 266.947021484 268 264.264007568 257.0184021 259.721740723 254.037719727 252.982940674 240.98248291 239.127090454 239.962280273 232.779800415 233 239.379669189 251.966323853 255.163391113 252.355514526 250.892425537 253.962280273 241.134002686 237.238418579 236.882049561 222.605270386 205.76423645 218.662155151 205.025314331 206.413619995 199.811431885 199.878295898 200.92010498 189.794708252 208.924575806 196.596359253 186.113800049 200.937561035 190.956283569 192.773727417 169.04750061 188.231521606 187.642242432 190.886856079 197.924575806 203.523193359 201.037719727 200.07208252 200.008468628 200.064605713 203 200.010284424 193.234436035 203.476165771 207.271835327 214.960113525 220.307571411 220 222 226.823318481 233.595199585 235.385040283 237.668502808 233.037719727 211.904525757 206.962280273 205.902908325 206 205.593109131 208.962280273 209 210.495239258 214 217.037719727 224.962280273 221.716033936 222.464050293 224.212051392 227.962280273 228.050628662 230.418365479 233 231 227.427734375 226.372695923 234.913757324 229.206710815 231.962280273 226.98866272 225.924575806 227.516113281 223.447235107 235.459091187 239.97064209 234.664230347 229.962280273 224.794281006 220.035598755 220.962280273 219.962280273 214.962280273 216.828765869 213.351699829 218.320877075 218.966461182 221.005691528 219 221.97454834 222.027984619 221.007492065 225.979644775 225.759994507 222.846542358 221.028427124 224.586685181 222.740722656 225.969573975 231.229125977 233.979049683 237.36555481 243.119781494 245.659042358 244 240.859588623 240.962280273 240.350708008 237 229 228 233.111785889 226 226.038848877 232.557022095 234.018234253 237.471847534 242.948104858 241.721298218 243.469177246 244.725082397 244.997940063 245.342193604 246.059524536 243.037719727 249.996154785 257.612121582 258.279724121 257.995758057 258.775085449 254.962280273 264.239044189 268.864562988 266.742462158 266.538085938 266.962280273 270.872253418 270.028503418 269.506286621 263.962280273 260.036590576 264.583770752 266.429412842 265.993041992 259.957305908 264.962280273 261.586181641 263.169464111 266.15322876 267.552337646 261.71383667 267.872833252 270.758666992 273 277.658447266 269.959594727 243.357040405 242.342819214 254.281890869 262.967987061 263.257263184 263.491516113 260 255 249.962280273 245.517227173 245.806930542 246.096633911 243.213668823 236.624160767 231.891159058 232.930145264 232.710769653 224.100753784 204.164337158 233.698303223 238.934707642 239.253799438 246.943954468 242.5050354 236.523727417 247.137908936 238.916351318 258.548370361 260.243164062 272.971893311 271.04296875 283.62399292 283.272766113
189.96762085 188.735992432 188.635223389 180.9375 182.003814697 183.216537476 178.116790771 184.50302124 191.430938721 193.926818848 193.826538086 192.02545166 193.664596558 196.652572632 196.779998779 192.200378418 193.802627563 197.56640625 194.333984375 195.181930542 192.301544189 197.720077515 195.782867432 195.007049561 201.440917969 204.86920166 198.695098877 194.756378174 201.569442749 205.820755005 204.317123413 206.408004761 200.859985352 201.570663452 206.779403687 202.913375854 204.703857422 199.223312378 202.395523071 208.684844971 213.064208984 210.633071899 207.574462891 208.365707397 208.392578125 208.185470581 212.276809692 209.022109985 208.493499756 209.656539917 213.432540894 216.758926392 216.245651245 213.774536133 213.479049683 218.882965088 216.104217529 214.667602539 215.960525513 220.729705811 234.254257202 230.552017212 230.506500244 242.18737793 250.612060547 251.504547119 246.002426147 245.253250122 251.421600342 254.990783691 252.777252197 251.560150146 245.817382812 241.315887451 239 242.607620239 244.649291992 246.93347168 252.406921387 259.165893555 257.759765625 258.253265381 260.746734619 264.772827148 263.990997314 260.675476074 255.364532471 255.186676025 255.749755859 257.864898682 249.018035889 240.342269897 233.552856445 229.561462402 226.10559082 231.078536987 238.947280884 242.47026062 251.057922363 242.957763672 233.253250122 231.17590332 227.437774658 220.341384888 222.112167358 215.162063599 189.860961914 195.746398926 189.99597168 183.515670776 174.595291138 201.965637207 177.59336853 182.073043823 190.326919556 176.547103882 192.448059082 167.517089844 181.020462036 178.500350952 182.324035645 185.941955566 182.578140259 188.031143188 191.506500244 197.671020508 200.981658936 201.746749878 199.493362427 206.050704956 207.260940552 199.594329834 203.678710938 195.302383423 207.586486816 208.398986816 221.090270996 222.826095581 224.441574097 227.181152344 231.624298096 230.672470093 216.873764038 208.519546509 213.576828003 214.685043335 216.48550415 214 213.52935791 208.242614746 209.438156128 215.875778198 218.847976685 222.220031738 225.145629883 223.077590942 222.460617065 224.486068726 223.595809937 225.54864502 226 229.253250122 226.544494629 231.861312866 230.746749878 232.571121216 224.239013672 219.968353271 221.571060181 222.506500244 221.122817993 219.557693481 219.766235352 219.253250122 218.974075317 219.593139648 218.070373535 215.490737915 215.146850586 212 208.383117676 209.019683838 215.841125488 214.759750366 220.342407227 210.542953491 218.493499756 218.870346069 217.104980469 225.12361145 219.797973633 221.972320557 218.746749878 220.223083496 225.207244873 228.723129272 228.527587891 234.161453247 239.182785034 242.746749878 245.659042358 240.450149536 233.527282715 232.620193481 231.253250122 232.261154175 236.253250122 238 228.871780396 225.344345093 226.776901245 229.41595459 230.385803223 232.31930542 239.263839722 234.976303101 238 240.89112854 238.198699951 247.177078247 241.146453857 243.959518433 250.227416992 253.839401245 251.720535278 249.394119263 247.103759766 252.560424805 260.956420898 260.811676025 256.703460693 257.931488037 257.765350342 260.746734619 263.689025879 266 262.253265381 255.977584839 263.528778076 263.779785156 262.609069824 256.057861328 262 254.450042725 258.102233887 259.381561279 259.457885742 257.573364258 259.342681885 262.216094971 268.324310303 267.480133057 266.179931641 264.164215088 256.459503174 228.66166687 253.262832642 241.442276001 256.430908203 255.506500244 253.6668396 247.276565552 242.430648804 236.908187866 239.633895874 237.895843506 234.624160767 230.686935425 227.220870972 232.021728516 222.268112183 202.436813354 231.804641724 236.317138672 244.608123779 242.985778809 240.992141724 243.630126953 234.098724365 233.457885742 252.128570557 262.954345703 273.506500244 282.962554932 284.844268799 274.324981689
188.879196167 188.193023682 189.214538574 186.088424683 187.433822632 184.164031982 180.450393677 186.256469727 194.393234253 191 196.413711548 195.676834106 196.484344482 198.628112793 198.455780029 198.512588501 206.914291382 193.264648438 193.862991333 193 191.842590332 193.922607422 194.272903442 196.545043945 193.455780029 194.3228302 197.447692871 198.708679199 194.844100952 196.761505127 195.448226929 206.373245239 197.347351074 196 202.959518433 204.737762451 201.187408447 196 201.632644653 210.461975098 204.732299805 207.161010742 205.559707642 208 208.911575317 207.088424683 208.55770874 208.87449646 214.081436157 212.003143311 213.488952637 214.604095459 209.189300537 213.762680054 223.544219971 223.113082886 218.344024658 221.929122925 218.240722656 225.861083984 235.320373535 246.143692017 251.004257202 254.579406738 244.028335571 238.65473938 244.680709839 246.70942688 248.122695923 251 249.482162476 251.038894653 248.544219971 245.623565674 236.069168091 232.936599731 241.130508423 244.148300171 246.544219971 254.731918335 255.582061768 258.455780029 261.440673828 259.026306152 261.544219971 256.896850586 254.032363892 250.955825806 252.001052856 249.544219971 249.544219971 246.636520386 246.027053833 238.055938721 226.21572876 221.084381104 237.844497681 231.368682861 236.712600708 247.049026489 238.918655396 231.743881226 224.589599609 224.995605469 216.783935547 198.219146729 208.605178833 207.475311279 205.384857178 197.744033813 181.354003906 176.034484863 181.892425537 182.99168396 194.462356567 193.088424683 190.832397461 176.782104492 184.263458252 187.455780029 194.429885864 177.920700073 184.246444702 192.903549194 184.737762451 191.680511475 195.051254272 200.897583008 201.544219971 202.1146698 205.445495605 207.000091553 210.212387085 205.047561646 197.881652832 202.455780029 210.088424683 218.728866577 223.088424683 237.377166748 235.540527344 220.83140564 207.235778809 212.225601196 217.383392334 217.788146973 210 210.333633423 212.426376343 216.992248535 214.039459229 210.277267456 215.544219971 219.984863281 222.777069092 227 224 224.580993652 223.201660156 227.939788818 221.394836426 223.216583252 224.331954956 231.493225098 225.455780029 226.631408691 223.437484741 221 220 215 214.544219971 215.593566895 212.088424683 209.396972656 213.011795044 215.450454712 212.574768066 211.544219971 207.57989502 206.616333008 211.032028198 209.710800171 212.086700439 208.483932495 214.373565674 216 213.882705688 215.544219971 223.512390137 222.047714233 207.537521362 216.464416504 214.298187256 212.812026978 219.418914795 218.426956177 226.322021484 234.455780029 238 234.544219971 236.659042358 231.941390991 232.467758179 231.455780029 236.290527344 257.717071533 244.544219971 234.718231201 225.980102539 224.862243652 228 229.455780029 230.281158447 235.254776001 236.989059448 236.064651489 236.075027466 240.230148315 237.172668457 234.455780029 241 241.159851074 246.442199707 251.544219971 248.374252319 245.404571533 245 249.17729187 262.237091064 259 253.473205566 245.085388184 247.544219971 256.015899658 257.81161499 256.03793335 253.186187744 257.590576172 259.385375977 259.446258545 256.371734619 256.721282959 257.544219971 253.818237305 250.681121826 253.88609314 256.544219971 255.544219971 252.674423218 254.716629028 256 260.68270874 260.502227783 260.544219971 255 234.709197998 222.922058105 242.231079102 253.088424683 249.695861816 245.301605225 237.544219971 237.576690674 242.235031128 232.367355347 229.78604126 221.908630371 218.527893066 219.408447266 226.67868042 224.380371094 198.514526367 228.260437012 234.751174927 237 238.019042969 237.441925049 232 230.33984375 225.056838989 244.018875122 241.284606934 258.034759521 266.392425537 272.337768555 242.217895508
195.867553711 191.623794556 191.260253906 191.358047485 199.612487793 190.677398682 187.957275391 183.067337036 188.960281372 186.058700562 186.42628479 195.378707886 193.908111572 198.566818237 200 198.922348022 200.703643799 203.164825439 201.819107056 198 197 202.164825439 199.120101929 192.00944519 191.705978394 190.835174561 191 190 190.449645996 193.835174561 195.011550903 194.849273682 196 196.200820923 194 197 199.405776978 203.886825562 199.246261597 201.653305054 199.06842041 200.673950195 205.806793213 204.70791626 202.819396973 204.207443237 202.329650879 207.000198364 207.505523682 211.368713379 211.957092285 213.670349121 209.164825439 212.553573608 214.817306519 224.835174561 222.670349121 223.581848145 227.679290771 220.164825439 225.423126221 233.2918396 244.335693359 238.252563477 234.487411499 229.824127197 237.037490845 245.750671387 243.774551392 245.933166504 255.41394043 253.357635498 252.123260498 246.919067383 238.964172363 229.837112427 233.447357178 242.835174561 245.328414917 249.180084229 253.83644104 255.97052002 256 255 252.841033936 251.835174561 251.427474976 249.873550415 246.847061157 241.133621216 243.629196167 242.96661377 241.844955444 244.349136353 241.912734985 228.149047852 221.41885376 224.043289185 234.69909668 240.670349121 236.366134644 228.086502075 226.175888062 216.724853516 211.096054077 209.184127808 204.448638916 215.811965942 202.871414185 194.099105835 187.735534668 179.758010864 178.198883057 170.20916748 161.209182739 164.766448975 165.434295654 183.835174561 186.889663696 188.740493774 187 190.48866272 192.599655151 189.835174561 177.768737793 185.927734375 195.158691406 194.517303467 197.406356812 203.086761475 204.154541016 205 206.4659729 213.874465942 209.067276001 203.372299194 207.164825439 211.426483154 225.772216797 237.528594971 240.628952026 224.507644653 206.140548706 208.607543945 210.053329468 212.886749268 208.868164062 208.626846313 212.276107788 214.014251709 218 215 218 217.835174561 220.835174561 222.11340332 221.835174561 216.148071289 218.492614746 218.065933228 216.745544434 219.871841431 221.124664307 225.505523682 219.748931885 218.85333252 223.333068848 220.46546936 219 216.595718384 212.484954834 215.253173828 214.835174561 208.609222412 215 212.760375977 208.42098999 200.404754639 200 199 201.773971558 207.212493896 208.371627808 202.311386108 213.557907104 210.481018066 210 214.105758667 216.704086304 211.381256104 212.273590088 214.832565308 212.164825439 212 213.835174561 210.164825439 224.413024902 231.889297485 232 231.151794434 233 237.959182739 239.194335938 235.308792114 248.361175537 251.029067993 259.824310303 246.512863159 225.672561646 224.862579346 223.835174561 225.706863403 230.920333862 231.212783813 233.00592041 230.445724487 230.634002686 236.826858521 237 237.406082153 239 239 240 242.974258423 245 244.98147583 246.124847412 249.343551636 256.891906738 253.824478149 249 247.842010498 239.068450928 242 243.20413208 246.835174561 247.028808594 252.805160522 254.787063599 255.462478638 255.153991699 246.064712524 255 251.666946411 245.164825439 246.480911255 250.835174561 252.835174561 243.849914551 253 256.291137695 256.531341553 256.00692749 253.706588745 249.115890503 245.743621826 219.163925171 248 249.835174561 241.756652832 248.687805176 232.948104858 228.740127563 234.858413696 236.851730347 236 231.938049316 229.050842285 228.024368286 226.985916138 195.183410645 223.82421875 225.444473267 227.91053772 235 235.034957886 234.242828369 229.083190918 225.32131958 225 228.275253296 227.86567688 236.835769653 255.797348022 268.835174561 261.987060547
186.723510742 188.896652222 190.429382324 189.219528198 190.263565063 193.34161377 186.335037231 195.479415894 190.873855591 187.085220337 195.161437988 191.463180542 187.887741089 190.299194336 188.492385864 191 193.822647095 202.088043213 207.488586426 203.985641479 200.668899536 202 197.183837891 192.875045776 189.568374634 190.550582886 190.97177124 190.038024902 191.224227905 189.382965088 191.324768066 193.20085144 193.126144409 192.31703186 192.126144409 192.750854492 193.873855591 201.104400635 207.945037842 204.134902954 201.498077393 199.599624634 199.092163086 198.097396851 199.507659912 200.716384888 205.875564575 208.149215698 206.741043091 205 205.187088013 203.085418701 207.258651733 213.901168823 214.657012939 216.370285034 216.493988037 224.4375 224.01008606 227 228 229.830108643 227.799285889 230.425888062 226.293548584 239.261932373 242.74772644 245.425842285 247.577545166 244.247680664 252.811233521 252.929336548 251.644042969 245.367843628 242.010955811 238.609130859 242.492462158 241.109573364 243.263153076 248.471054077 251.67515564 250.126144409 252.267242432 253.65145874 251.161712646 250.676315308 244.426574707 245.686950684 241.127639771 237.947402954 237.658081055 241.923629761 239.244796753 243.74772644 241.311737061 231.893417358 232.093353271 225.127365112 212.603927612 236.201583862 237.893325806 232.342514038 233.099472046 221.318313599 212.479476929 217.68006897 208.141830444 180.495101929 191.942855835 203.022171021 184.475921631 173.282714844 159.467132568 166.827285767 170.823806763 177.385101318 183.553024292 184.546859741 188.615615845 186.996383667 186.873855591 185.378417969 189 189.0287323 190.873855591 192.911575317 177.733383179 187.676757812 194.513442993 196.873855591 202 207.544219971 204.067367554 206.278030396 212.126144409 212.981521606 208.69493103 210.489700317 220.167984009 225.81401062 226.25227356 214.227920532 205.541931152 210.890014648 211.691665649 213.632080078 208 208.194000244 208.632583618 211.873855591 213.342529297 216 219.931549072 220 217.552947998 220.416442871 212.307312012 212.196655273 215.574508667 213.478286743 211.378417969 212.014144897 216.807785034 220.665496826 226.035476685 230.284790039 225.929046631 219.398712158 214.28616333 216.321090698 210.576217651 213.967163086 206.991317749 207.614852905 206.126144409 209.305908203 206.182296753 201.484268188 197.105987549 197.019958496 197 197.634506226 207.847503662 208.00138855 203.101196289 203.143692017 209.662597656 213.873382568 213.025039673 206.655731201 201.703033447 203.153839111 207.221252441 205.632034302 212.873855591 220.740875244 226.234786987 228.807632446 231.182785034 238.863891602 239.424087524 243.74772644 242.900100708 246.889831543 251.019866943 259.743530273 274.1328125 235.552444458 228.433395386 223.823898315 223.833480835 225.584960938 226.39050293 231.809494019 229.134124756 226.966079712 237.155258179 240.462310791 233 233.723495483 237.295578003 238.628204346 238.215286255 239 236.374252319 244.126144409 244.256774902 247.821975708 248.956298828 246.99180603 245.101303101 242.584960938 236.720687866 242.032684326 242.095306396 240.495300293 244.691696167 243.725280762 250.289093018 252.056289673 251.287261963 249.903457642 253.703445435 249.1769104 249 245.968475342 246.639099121 249.52255249 244.450073242 248.227752686 251.560424805 253.594451904 252.5834198 251.835586548 247.355621338 234.921218872 239.496994019 246 246.478149414 243.973648071 238.291687012 232.913574219 227.503952026 225.449035645 236.051437378 233.362289429 234.65687561 235.126144409 231.040405273 225.126144409 219.253662109 194.61555481 225.975357056 230.010787964 234.628387451 234.016647339 230.45501709 222.00819397 221.126144409 226.975158691 225.074630737 213.343765259 241.639816284 254.494979858 265.452301025 269.798858643
186.449478149 190.582901001 182.70350647 177.753219604 180.804031372 186.463012695 180.147094727 183.165802002 186.937438965 191.864685059 193.996612549 194.734741211 194.119903564 196.738006592 204.64994812 203.791244507 197.582901001 202.165802002 217.304153442 209.132614136 204.99281311 206.883926392 198.537918091 196.577392578 192.582901001 190.485717773 191 190.56072998 191.882781982 190.417098999 191.582901001 192.914505005 202.28276062 194.355117798 194.12890625 197.45375061 193.582901001 194.582901001 199.112518311 202.477737427 205.2578125 206 198.431274414 200.28427124 200.131622314 207.665481567 204.60987854 209.165802002 210.002288818 212.117111206 209.226745605 215.260070801 219.314788818 224.276000977 216.891586304 221.154449463 223.048614502 222.415145874 222.678314209 217.242858887 219.834197998 222.641403198 228.752532959 228.846496582 233.6900177 240 245.915466309 248.582901001 249.094039917 249.582901001 248.417098999 249.233642578 246.822021484 243.417098999 241.798461914 240.392379761 238.286590576 245.714248657 251 258.201049805 253.416809082 246.657485962 246.183807373 251.007583618 251.562164307 244.809188843 246.094741821 240.54145813 239.417098999 234.159576416 231.312210083 233.501571655 232.35774231 238.834197998 237.583084106 238 234.937728882 234.153778076 215.014923096 227.251312256 232.647247314 223.174530029 223.002563477 219.869247437 222.319351196 200.927246094 197.491607666 207.568161011 179.524200439 184.917510986 169.076980591 172.291900635 164.820388794 175.614486694 179.521774292 180.651535034 180.344161987 186.393981934 188.284988403 187 187.025482178 188.653488159 187.498245239 187.834197998 190.887863159 190.716140747 190.6355896 194.417098999 196.320755005 194.417373657 192.417098999 202.727844238 209.056945801 207.701873779 210.752365112 217.550415039 213.500518799 209.482437134 213.939422607 207.415267944 212.154769897 204.600997925 210 205.07585144 201.699234009 206.870178223 208.116668701 212.165802002 210.608718872 209.42539978 212.4581604 208.212509155 210.834197998 214 216.883132935 213.324645996 212.577453613 211.455169678 207 208 210.660842896 211.561645508 215.579788208 221.202911377 231.388565063 240.592727661 227.729568481 216.815811157 211.439712524 212.646881104 208.350524902 205.852416992 206 208.008087158 211.582901001 201.462982178 200.417098999 199 202.42010498 201.351104736 201.582901001 202.403747559 209.328186035 202.935424805 201.214111328 203.412948608 207 204.609298706 209.102813721 209.582901001 201 188.65814209 207 211.99079895 216.694778442 219.955184937 226.294692993 225.972457886 234.493347168 239.046096802 244.592987061 248.768615723 245.774642944 248.873443604 247.295333862 246.728759766 245.751022339 231.692565918 223.254074097 222.302246094 223.440643311 221.417098999 225.684967041 222.459350586 222.424194336 223.304916382 228.355453491 235.792694092 235.4737854 232.184448242 234.758789062 237.82572937 233.834197998 235.219009399 237 239.887619019 240.267608643 242.588684082 247.446594238 243.870178223 241.752059937 238 231.558624268 236.982559204 237.10194397 233.134567261 238.582901001 244.404586792 249.295349121 248.677215576 241.457641602 251.307296753 250.07774353 245.649551392 245 245.437225342 235.254882812 240.973190308 241.739776611 249.971755981 253.268493652 243.113250732 242 246.582901001 248.783843994 249 233.445449829 239.033004761 218.84262085 238.834197998 240.395019531 235.498336792 232.742477417 222.609664917 230.841049194 232 237.322555542 238.051818848 231.564987183 222.655944824 215.582901001 184.538101196 219.026397705 226.417098999 229.580841064 229.007949829 225.757171631 219.504684448 215.786621094 215.023712158 208.543914795 228.517562866 243.613739014 249.879882812 251.668411255 261.001190186
186.347244263 183.454421997 182.216705322 181.927963257 173.405441284 174.779968262 181.797653198 181.708068848 184 187.705322266 192.70664978 192.892486572 196.473846436 197 210.52684021 208.634155273 205.045974731 206.741943359 208.809585571 213.916107178 212.496887207 207.622467041 200.862213135 199.71081543 196.708068848 190.635848999 190 190 191.700119019 190.602233887 193.708755493 194.22088623 203.360717773 201.469787598 195.512130737 199.171768188 205.781845093 204.614044189 199.291931152 195.636535645 195 197.20664978 199.291931152 200.546707153 198.271438599 202.364440918 201 208.627685547 205.245285034 210.661392212 221.982208252 223.969116211 228.584686279 224.445968628 216.644760132 219.337783813 216.632156372 217.160064697 215.149871826 214.704208374 220.801589966 224.041427612 224.881271362 230.205368042 233.564849854 237.018859863 245 246.345046997 242.159637451 245.025787354 240 249.124191284 239.468093872 239.975509644 237.463241577 230.039077759 234.969085693 239.291931152 249.898712158 256 248.625015259 245.355224609 241.708068848 242.005508423 251.672485352 248.226287842 245.149429321 246.249984741 230.027252197 228.477874756 230.464385986 230.797485352 228 228.831130981 233.708068848 229 227.708068848 226.708068848 230.661376953 216.737426758 225.553771973 222.121459961 219.875961304 208.970031738 206.071334839 203.368637085 200.478851318 192.920440674 164.361663818 171.468902588 176.620437622 180.439346313 177.043548584 189.733383179 187.239501953 186.058258057 184.583862305 183.570892334 183.159820557 181.745941162 184 184.46270752 182.351867676 184.948257446 188.871810913 189 188.026321411 190.840911865 194 193 191.711074829 194.940322876 204.038009644 207 210 213.972320557 218.617889404 220.740509033 231.583862305 229.323944092 217.549850464 199.971862793 207.875808716 203.121017456 200.802536011 206.043701172 209.325286865 203.38092041 204.421508789 206 206.247619629 210 206.066741943 210.00970459 208.704910278 212.394363403 207 205.080688477 204 210.395584106 213.25289917 207 209.886138916 221.290817261 224.769134521 226.008041382 219.455322266 215.814163208 218.011322021 216.291931152 214.656616211 208.218017578 207 211.729446411 211.090591431 215 211.668304443 206.265853882 208.122650146 205.708068848 203.896377563 206.449279785 201.1459198 196.954238892 200.89302063 203.29510498 199.802993774 201.063308716 197.035415649 205.213577271 199.918930054 200.606307983 206.708068848 205.867507935 213 215.936752319 227.206253052 224.129806519 230.238571167 233.023086548 240.729049683 242.221191406 245.689880371 240.834625244 236.594665527 236.897903442 234.974349976 230.764175415 226.888473511 216.708068848 219.667694092 219.708068848 220.275024414 221.435180664 220.284851074 226.921478271 235.332214355 227.915374756 238.653518677 231 230.590530396 239.360610962 229.708068848 231.928039551 237 236.675262451 235 237.068328857 236.416137695 238.662109375 240 238 231.951675415 236.027633667 239.417480469 240.234283447 234.175338745 242.969985962 245.206680298 241.261825562 239.314926147 246 246.416137695 244.079925537 240.096939087 245.875045776 240.112930298 230.226760864 237.178894043 244.655151367 243.400558472 242 245.678344727 242.416137695 246.45262146 255.672515869 250.886779785 251.757232666 268.291900635 217.685012817 228.956451416 234 229.700271606 229.037246704 217.244598389 237.913131714 254.190216064 231.900177002 225.899124146 232.226806641 211.147171021 183.154800415 212.220779419 221.793624878 224.988983154 222.689025879 218.414749146 216.56072998 213.250839233 209.340484619 223.210586548 225.311828613 234.13168335 245.848220825 238.417068481 243.964904785
184.966644287 180.539306641 177.493789673 172.25869751 176.98197937 178.276947021 177.000442505 186.198150635 187.998962402 192.673629761 195.99822998 206.302276611 198.218093872 197.255981445 200 202.103408813 205.999023438 214.000564575 222.000976562 222.056915283 215.205734253 212.467788696 199.001678467 194 191.25289917 190 190.776367188 190.000976562 201.096740723 207.562728882 204.647415161 201.002838135 199.651672363 207.000213623 202.999755859 203.133804321 208.999023438 206.686935425 208.920501709 205.179626465 205.115859985 211.704437256 211.999969482 213.000976562 211.491699219 206.250076294 207.014450073 206.998764038 209.462783813 205 217.061920166 227.354705811 231.582748413 223.693115234 209.215866089 209.630065918 209.895843506 207.10597229 210.99887085 213.581268311 214.000976562 222.236846924 229 226.000976562 232.725402832 234.010070801 239.999267578 239.486343384 237.000976562 235.037353516 234.701705933 238.438323975 234 232.999023438 231.998062134 231.607025146 220.738983154 227.864761353 242.605224609 241.688522339 237.999023438 237.999206543 237.000976562 236.295501709 237.035583496 241.774688721 244.487182617 238.998779297 231.011886597 230.999023438 228.536590576 223.201538086 217.12059021 224.679092407 232.417877197 229.844955444 224.106826782 223 225.368469238 229.891555786 199.691207886 210.660568237 191.361907959 192.176330566 195.409332275 202.99760437 198.717987061 196.958145142 156.248977661 164.518386841 163.549575806 158.964248657 153.298629761 169.19859314 184.816711426 180.999023438 180.344787598 180.99961853 180 181.739639282 181 180 182.083587646 182.999832153 184.559936523 184.999023438 189.960906982 189.225448608 192.512466431 192.000976562 194.011245728 197.273834229 195.467468262 200.40802002 207.999084473 219.720855713 241.163787842 233.842376709 233.104248047 234.000976562 228.886505127 209.564147949 213.54208374 200.999603271 199.324554443 203.999938965 203.796936035 200.462997437 201.274871826 206.02557373 205.246414185 206.000473022 207 208 204.000289917 204.442504883 206.180999756 205.000976562 204 206.39654541 206.999023438 207.128158569 210.000976562 219.302810669 214.999023438 214.996459961 215.998596191 220.302581787 228.961257935 227.000976562 228.516494751 221.001220703 218.002914429 220.730422974 219.000061035 212.204544067 211.111343384 203.317718506 206.159210205 198.999023438 196.791793823 199.633895874 195.001327515 199.777572632 196.850997925 197 199.323898315 196.126617432 198.800674438 198.919876099 185.832702637 204.985107422 205.753982544 209.491134644 210 213.000976562 221.706512451 222.99848938 228 233.99798584 229.341598511 235.998062134 240.134338379 236.126556396 232.99961853 230.651596069 229.911270142 225.999191284 226.692337036 214.301956177 213.000900269 217 215.00050354 217.256973267 219.998062134 222.729370117 222.530303955 226.000762939 229.218215942 227.683883667 230.577316284 225.998214722 236.895065308 244.632843018 236.000610352 233.884918213 229.150314331 226.588638306 232.000976562 234.064910889 239.410690308 232.457321167 230.280288696 234.998062134 230.000976562 228.506286621 232.999023438 241.969039917 239.998062134 237.552246094 234.183410645 239.999923706 240.661621094 239.99961853 237.135940552 245.997085571 242.386444092 220.053878784 242.999023438 242.99822998 246.435806274 237.998352051 247.000930786 243.998275757 233.035980225 238.997329712 242.982574463 252.464324951 258.112030029 231.323074341 207.897872925 230.685180664 225.000564575 221.161132812 213.399642944 228.273208618 228.997085571 220.114730835 208.148712158 207.40838623 200 184.330688477 208.80368042 214.456771851 214.999023438 213.981933594 211.757415771 210.504196167 210.765579224 209.02935791 204.127761841 219.999023438 232.814987183 236.616744995 236.33581543 204.798812866
182.570587158 178.359512329 175.503814697 165.867996216 176.699295044 174.986968994 180.078613281 183.579986572 186.955581665 193.479660034 195.707458496 191.289993286 192.063812256 195.803497314 196.579986572 198.364105225 205.463653564 211.000656128 219.835113525 216.17616272 215.708953857 209.491729736 206.826568604 191.700561523 192 191 190.064910889 190.038024902 191.212921143 207.166488647 215.591598511 214.734802246 204.536621094 201.668228149 205.671508789 211.787124634 209.420013428 206.243759155 206.733627319 208.446960449 208.185775757 215.822479248 219.309692383 224.382415771 224.90977478 215 211.710006714 206.420288086 211.693008423 210.995300293 206.745361328 207.425582886 214.039535522 210.808578491 207.366973877 208.289993286 211.838027954 213.314041138 210.934524536 215.339950562 210.517456055 217.390045166 232.158920288 235.114746094 233.437103271 236.985748291 235.927261353 237.851318359 235.679870605 235.953018188 231.211791992 229.289993286 229.467971802 228 228.100265503 223.721405029 227.289993286 227.879455566 216.989196777 225.620056152 232.793060303 235.238128662 230.559310913 231.078796387 237.279678345 235.516281128 232 228.6849823 230.278106689 222.983764648 230.289993286 231.768737793 223.059356689 214.387496948 230.289993286 223.59992981 222.740982056 222.448242188 224.262313843 230 223.063323975 222.883178711 219.029403687 209.069915771 197.844482422 208.619171143 184.186187744 165.108505249 194.217712402 188 185.062942505 176.499755859 164.382720947 151.95513916 160.858673096 174.337722778 179.289993286 178.114257812 173.906204224 173.41973877 176.756408691 176.579986572 177.710006714 180.986938477 182.474411011 183.874389648 182.646438599 185.840621948 193.289993286 192.289993286 195.710006714 197 201.620834351 197.899368286 199.23223877 216.843826294 229.295639038 234.202072144 237.259475708 235.183532715 232.048965454 210.201660156 207.289993286 205.700195312 198.676422119 200.191741943 203.536102295 197.462020874 199.392089844 198.420013428 197.579986572 200.562255859 208.319015503 201 199.080474854 202 205.418624878 205 203.046768188 205.114715576 202.289993286 201.418151855 204.856903076 204.042831421 204.666229248 212.017852783 222 226.677825928 237.027526855 236.93309021 241.710006714 237.093414307 229.431228638 224.831100464 219.425582886 217.024627686 208.143676758 204.286437988 200.869873047 195.887649536 190.653549194 188.808990479 191.025405884 194.447296143 197.151092529 192.532714844 192.213058472 186.970001221 196.312896729 186.602584839 197.277709961 204.42666626 207.753982544 207.420013428 218.25302124 211.321609497 216.289993286 219.83895874 222.205093384 229.65385437 230 225.289993286 228.676055908 228.326690674 221.841552734 220.9402771 217.957824707 215.941955566 221.998184204 217.395507812 212 214.225769043 218.439819336 215.035217285 218.992904663 223.480957031 223.333114624 227.082672119 226.30581665 225.485351562 223.46711731 226.840148926 230.347579956 234.184463501 236.961517334 233.579986572 228.212280273 227.997924805 230.100463867 233.046081543 242.201370239 232.328796387 223.057601929 231.289993286 230.607345581 229.710006714 225.521835327 232.298690796 232.169296265 233.683166504 229.525634766 234.212509155 238.289993286 237.058700562 233.4269104 240.532577515 239.112167358 219.533432007 234.735946655 230.119659424 239.551437378 238.681945801 257.781799316 246.286148071 235.585876465 224.64692688 220.590957642 231.082443237 219.658065796 223.746520996 199.158859253 213.646453857 221 218.128540039 212.129547119 208.467346191 206.77482605 207.209060669 203.6849823 201.462097168 198.381622314 183.594619751 203.523330688 207.218154907 211.579986572 211.980957031 208.289993286 204.928939819 206.990325928 209.71824646 210.411911011 198.972167969 197.617736816 211.825958252 198.789138794 213.007614136
182.921676636 175.200897217 171.295501709 163.172271729 172.146820068 172.160903931 178.042129517 180.748001099 187.5184021 190.365737915 190.826629639 198.303695679 204.046096802 205.419052124 201.519714355 202.358413696 209.614608765 212.1612854 217.766143799 219 219.3331604 205.466827393 199.038330078 193.575469971 190.252426147 191.634552002 191.093795776 190.580947876 191 199.507461548 213.27885437 212.616775513 214.161911011 215.133636475 214.365020752 212.559432983 220.024230957 215.07572937 209.453170776 209.9243927 211 212.704147339 221.033981323 230.867614746 238.419052124 233.008758545 233.276275635 216.809783936 211.462783813 209.535766602 213.332550049 213.419052124 211.177764893 208.72593689 209.356063843 212.370285034 208.367843628 213.64251709 211.377105713 209.419052124 213.245925903 222.023101807 235.419052124 231.161911011 231.739501953 229.569915771 235.828491211 235.283111572 235.774551392 234.984741211 228.298294067 228.297134399 223.419052124 223.497070312 225.071594238 223 220 222.733581543 222.246200562 216.214019775 224.362792969 222.103881836 227 228.297439575 235 230.226287842 225.390151978 218.895248413 224.580947876 219.547515869 227.464385986 225.044265747 222.453521729 213.938964844 220.75352478 218.071838379 221.419052124 212.685089111 216.422164917 217.892425537 215.845718384 216.657928467 213.865081787 211.384124756 209.822555542 192.933319092 202.419052124 197.9947052 189.934616089 188.51109314 180.030090332 168.483047485 169.257141113 171.581634521 160.583267212 148.663238525 170.817749023 165.208862305 163.176208496 161.870239258 172.416854858 174.201309204 174.383575439 175.4037323 177.255096436 181.754684448 186.522171021 187.549575806 189.298294067 192.83253479 193.419052124 196.727844238 200 202.623153687 203.152557373 204.522659302 224.24206543 236.44984436 229.9559021 230.580352783 231.257904053 206.242721558 208.783325195 199.995513916 190 190 200.180648804 206.38734436 217.133178711 215 208.229568481 202.722991943 203.095809937 199.019302368 196.704605103 197.095474243 198 198 198.856460571 196.810760498 198.447235107 196.580947876 201.419052124 205.692214966 209.617095947 212 219.143463135 223.845672607 236.474075317 247.195953369 250.323043823 238.346557617 230.424087524 226.541107178 218.449859619 214.21333313 210.442581177 204.161911011 199.91784668 194.161911011 188.684570312 187.265884399 190.161911011 178.046417236 189.493179321 191.167999268 184 186.908660889 193.220489502 192.460418701 198.580947876 203 207.419052124 204.08883667 206.419052124 208.013244629 214 216.122009277 220.657546997 226.871231079 226.419052124 222 222.864685059 222.214935303 219.162765503 213.580947876 213 215.346130371 213.435882568 213.464157104 211.395584106 208.940414429 211.516647339 213.402786255 215.426132202 218.31199646 221 222 222 225.559036255 221.242324829 229.738739014 232 233 233.720443726 228 226.924942017 225.65802002 227.516616821 227 229.286239624 225.498596191 224.139938354 229.419052124 231.580947876 233.99269104 229.671005249 220.025161743 228 225.877578735 223.548629761 233.239395142 231.339355469 228.748062134 228.660491943 234 237.194137573 214.363952637 238.419052124 234.110687256 245.353240967 248.115203857 255.731277466 274.742858887 251.396957397 219.594680786 212.164215088 209.307006836 212.273498535 216.872161865 206.759902954 197.245147705 212.427581787 216.229568481 204.899581909 199.095062256 198.695251465 206.437332153 199.147888184 199.752655029 198.281433105 173.027877808 204.113494873 206.457214355 202.601379395 201.742858887 200.439880371 198.580947876 196.18347168 197.569046021 197.412307739 197.768615723 204.580947876 201.031799316 189.580947876 205.568161011
167.684661865 169.072006226 159.791687012 165.515777588 167.869979858 170.793991089 177.735198975 184.429946899 186.871917725 182.392715454 195.69934082 200.36479187 204.113998413 214.628112793 221.046905518 223.384246826 220.364074707 217.493728638 209.256164551 211.808029175 214.66696167 210.277008057 198.294540405 191.264404297 193.464065552 193 192 192.038024902 191.299880981 190.438247681 193.529129028 212.829315186 201.871917725 207.859588623 219.111572266 218.401275635 220.65574646 222.855636597 216.740325928 209.128082275 206.128082275 214.129867554 217.901550293 227.573410034 230.681106567 244.615753174 233.799514771 216.697982788 210.324966431 211.128082275 212.309310913 220.342895508 219.618286133 218.846557617 213.777389526 212.259429932 215.495925903 221.334991455 215.155883789 218.256164551 222.855880737 226.988937378 223.102035522 223.941482544 222.401000977 224.871917725 229.615753174 233.49055481 233.521224976 231.128082275 228.170211792 228.368103027 229.082489014 224.329315186 223.473831177 224.34211731 222.113800049 221.871917725 219.213562012 225.610916138 210.837478638 224.610824585 226.19972229 230.702560425 227.964416504 227.674606323 223.48815918 219.718002319 217.1146698 218.982406616 224 220.567260742 214.879516602 216.784973145 201.406478882 212.310089111 210.093139648 216.262619019 218.11328125 212.743835449 211.154281616 210.394760132 207.128082275 206.751541138 204.743835449 197.871917725 199 194.743835449 189.281143188 189.894088745 186 184.906738281 166.337203979 146.184631348 147 166 159.728408813 159.256164551 160.128082275 164.853622437 170.088668823 171.564941406 171.787277222 175.717391968 178.071838379 183 185.876678467 189.352767944 192.424240112 193.251571655 193.128082275 196.365371704 195.534378052 202 202.120681763 199.721313477 206.837020874 222.185211182 235.091751099 225.973175049 211.001739502 200.460540771 207.566543579 201.871917725 190.640411377 204.802307129 200.881500244 202.469070435 212.552230835 220.630004883 221.600158691 209.637573242 199.672561646 201.905136108 202.037796021 200.485610962 195 193.952606201 198.871917725 192.94934082 193.133712769 197.983581543 205.609985352 214.392944336 214 212.058044434 216.618545532 224 237.910690308 248.260940552 251.228790283 239.618743896 235.008682251 227.939743042 220.532424927 210.871917725 208.871917725 201.040725708 194 185.020263672 184 182.164871216 174 174 179 191.511856079 188.162689209 190.055206299 191.974563599 195.539581299 199 198.352554321 201.041656494 202.568893433 205.871917725 207.972427368 213 214.501602173 219.895324707 222.068954468 223.340957642 222.474731445 220.635955811 220.014678955 216.611572266 215.695083618 210.883163452 213 209.128082275 207.391616821 206.871917725 208.585388184 212.161376953 215 213.00617981 221.555725098 215.469177246 217.792694092 221.824356079 224.643051147 220.843429565 229 228.871917725 226 226.871917725 222.773925781 225.613494873 220.052688599 223.715072632 225.687240601 224.102859497 225.714981079 219.581771851 227 228.627502441 230.443054199 230 228.871917725 218.041137695 229.389083862 231.10446167 239.828048706 230.339355469 223.125442505 228.128082275 228.891052246 235.485092163 236.470458984 219.690185547 240.332565308 253.075805664 263.216552734 242.911743164 245.999526978 222.512878418 212 204.010971069 204.698394775 211.871917725 210.973236084 206.373153687 198.439788818 209.128082275 207.140762329 203.256164551 202.918319702 200.208023071 190.014099121 197 184.790298462 190.460479736 182.495193481 202.640777588 199.802398682 195.871917725 190.743835449 192.50100708 192.93536377 189.977279663 187 189.328521729 187.424072266 189.965927124 197.871917725 186.128082275 211.451660156
150.135772705 162.643371582 165.671417236 166.246780396 167.017547607 170.228149414 176.097885132 178.691925049 185.937438965 193.458511353 198.250839233 211.314727783 216.582138062 220.5675354 228.959518433 232.645370483 236.294723511 227.188171387 219.98475647 216.454452515 206.786437988 203.837112427 200.207077026 205.854476929 205.936340332 192.593399048 193.837112427 191.200897217 191.586074829 192.837112427 203.069229126 198.497436523 200.489761353 207.325759888 216.596557617 224.78553772 225.408035278 226.926528931 230.837112427 216.197967529 209.090835571 206.752334595 208.162887573 218.772109985 215.655975342 218.874038696 211.506515503 209.837112427 212.774795532 216.837112427 219.162887573 224.10736084 224.421813965 225.555221558 220.385284424 225.668212891 226.615859985 225.691497803 236.550735474 232.16003418 228.215057373 231.221389771 228.170227051 225.389450073 222.490234375 222.988952637 222.749176025 227.57081604 229.288009644 232.295272827 230.183990479 232.254119873 226.539138794 223.837112427 221.963684082 218.264556885 211.541305542 217.315628052 216.379852295 204.95375061 218.222076416 224.495422363 224.885070801 228.356658936 219.325759888 222.13633728 224.837112427 220.802139282 213.97428894 220.044586182 218.087249756 217.365386963 214.059356689 205.757537842 202.094970703 203.155044556 203.910583496 200.514450073 198.325759888 201.055297852 202.317169189 205.742019653 193.4609375 199.283111572 194.325759888 197.601486206 183.613861084 177.475997925 183.674240112 181.677856445 168.35295105 162.389724731 154.819015503 144.343414307 162.505340576 162.82371521 161.549026489 160.556854248 161.251953125 162.141738892 167.426925659 166.615829468 165.992630005 170 170.693328857 179.11416626 186.03112793 187.963409424 193 193.837112427 196.15953064 193.990722656 197.303100586 198.503372192 204.884490967 207.319625854 207.581481934 206.639053345 222.268096924 224.554794312 204.420791626 202.091049194 200.985321045 201.327209473 202 202.540298462 201.330429077 199.537277222 198.601867676 206.177124023 217.118469238 208.117843628 195.771347046 197.99458313 197.554016113 203.764953613 197.029510498 194.080688477 189.505432129 194.227310181 191.296585083 200.453918457 205.67350769 211.893814087 211.086242676 219.849853516 222.562515259 220.145767212 226.038772583 233.590164185 228.677932739 230.537704468 219.335861206 225.773513794 216.695297241 207.086547852 202.381912231 196.051803589 192.57989502 185.162887573 178.706497192 174.162887573 174 174 179.126480103 188.749923706 188.054122925 180.451278687 185.670898438 185.799072266 186.392547607 198.162887573 201.325759888 202.409393311 202.355621338 210.299285889 217.015533447 217.392471313 217.478775024 216.145294189 219.425430298 216.325759888 219.497299194 217.452316284 214.849533081 215 211.135757446 213.545761108 205.726989746 205.493972778 204.966201782 206 214.567504883 213 212.005935669 222.344223022 215.162887573 217.162887573 212.434082031 215.888656616 222.001754761 225.837112427 225.751708984 224.896392822 224.313293457 218.887619019 218.149490356 217.229888916 221.763214111 222.010574341 220.032073975 219.621704102 218.115478516 224.148269653 225.592697144 227 229.480163574 226.162887573 222.884658813 223.99546814 229.837112427 230 230.284072876 223.843704224 224.885391235 227.058273315 222.38923645 227.428131104 228.316452026 218.435028076 225.457183838 221.977279663 216.13458252 209.035812378 211.199371338 207.283996582 203.007278442 198.689102173 200.719863892 202.162887573 189.132980347 206.111602783 206.739562988 206.652954102 200.791015625 204.497314453 198.522491455 195.067459106 192.464553833 190.162521362 174.346908569 192.447952271 193.031158447 191.620101929 188.162887573 183.996902466 184.286209106 182.415817261 182.842605591 181.976211548 180.804275513 183.462219238 192.371963501 187.25112915 191.162887573 195.622665405
151.047073364 161.349685669 169.886611938 161.319061279 171.971221924 171.5050354 176.446502686 179.852462769 185.546157837 194.044555664 199.199813843 216.985977173 230.872268677 240.092315674 244.258529663 251.044937134 257.146575928 252.321350098 236.45475769 222.489242554 216.433517456 209.745040894 210.690795898 211.458999634 207.84413147 193.233413696 194 200.869659424 198.463668823 195.306808472 206.814849854 205.500534058 203.703796387 210.781555176 220.475753784 219.546157837 214.725341797 220.923034668 210.826248169 208.529495239 212.55770874 208.295852661 214.070617676 210.988891602 218.267486572 210.248382568 216.084945679 214.150390625 220.934494019 219.63734436 223.940979004 224.530670166 223.549819946 226.161956787 233.816253662 240.748397827 237.810470581 262.332763672 251.865112305 245.182144165 250.546157837 247.118865967 244.907714844 231.780044556 221.727081299 223 224.453842163 227.675003052 228.348571777 227.453842163 226.837081909 227 223.902801514 221.499664307 221.080749512 217.453842163 220.320251465 217.22366333 200.453842163 213.61038208 215.361526489 219.372680664 221.453842163 227.972549438 219.453842163 218.680130005 222.965682983 222.955780029 214.472229004 212.633926392 210.746383667 208.656356812 208.605514526 206.145782471 198.804641724 198.763931274 206.092315674 208.368682861 202.487945557 198.092315674 196.700439453 192.621536255 200.08354187 197.912612915 183.766540527 183.108322144 181.633178711 177 171 167.51109314 163.443115234 158.092315674 163 147.063964844 149.35647583 145.935012817 142.641799927 149.245727539 155.526000977 158.799377441 162.848342896 159.189254761 165.546157837 169.368942261 174.800720215 181 185.037185669 185.453842163 188.793869019 193.296661377 194.995330811 192.181686401 191.919815063 197.29675293 202.603912354 207 209 207.610488892 217.498397827 220.533691406 201.426300049 203.175857544 206.537231445 204 203.323577881 207.672180176 209.655471802 211.839904785 197.78237915 199.453842163 206.318603516 198.472824097 192.103775024 198.528015137 195.384994507 200.453842163 198.453842163 192.11730957 190 197 196 196 206 209.461761475 219.587188721 215.453842163 214.546157837 224.208328247 217.017593384 222.16796875 218.141433716 215.453842163 213.911636353 213.632080078 206.14932251 204.228088379 201.453842163 192.771865845 188.126037598 187.769943237 180.489562988 182.634506226 185.199127197 175.828720093 171.385269165 173.866790771 175.147583008 179.063583374 178.347595215 177.043228149 182.244766235 189.569198608 194.342193604 198.738388062 205.420410156 209.968383789 212.86680603 218.435455322 219.717391968 212.964111328 214.340957642 211.783081055 213.257125854 211.850250244 216.609527588 207.748977661 200.453842163 203.722900391 201.8021698 200.453842163 202.475891113 205.47428894 209.516647339 211.115631104 211.996780396 214.844863892 214.743759155 214.774383545 215.975234985 213.907684326 219.329391479 220.453842163 222.907684326 221.652587891 221.262161255 222.050994873 213.84513855 216.77532959 217.157226562 215.518753052 222.018188477 210.381439209 215.339553833 220.336166382 219.301742554 223.224075317 222.453842163 212.921310425 219.179031372 227.856185913 226.083679199 225.383514404 227 223.202438354 217.484024048 207.054916382 215.934112549 203.856719971 203.674209595 210.341064453 209.874679565 205.149993896 200.476776123 200.979705811 207.064407349 203.743621826 195.56262207 194.878662109 198.016937256 200 187.081878662 202.374221802 201.453842163 200.584793091 199.59173584 196 196.063674927 188.552536011 185.361526489 182.962173462 175.324951172 168.060379028 183.365188599 187.661346436 186.172927856 183.888641357 180.656356812 177.729476929 178.418655396 179.041320801 180.868255615 181 184.721710205 181.580596924 186.754394531 186
158.363937378 157.997772217 164.618484497 163.744812012 169.977523804 169.836883545 177.461181641 186.199310303 196.953414917 193.662399292 202 219.048492432 236.779953003 258.139526367 263.149414062 277.171600342 279.7265625 285.143768311 251.136154175 247.510391235 224.022705078 215.347686768 205.930862427 197.754257202 197.502075195 192.868759155 196.302093506 201.527633667 199.287033081 209.398544312 202.43157959 209.318862915 214.513900757 218.645965576 221.486984253 212.599349976 217.605178833 219.978713989 218.15296936 210 214.584609985 217.075500488 213.676849365 212.71395874 209.364776611 214.006820679 213.98651123 218.539718628 217.462783813 222.657012939 224.209793091 230.677185059 233.415313721 243.765579224 245.119110107 254.305023193 269.264862061 286.835418701 266.288787842 263.09262085 259.679626465 254.181747437 246.203414917 232.811721802 226.541534424 225.011047363 224.506011963 222.025375366 221.519363403 222.708389282 222.625595093 220.744812012 218 218.062484741 213 204.252288818 197.162948608 210.242446899 212.133987427 207.653381348 206.951553345 213.877990723 214.863433838 218.447357178 218.246109009 219.51852417 222 222.750015259 218.267074585 213.069854736 199.351669312 192.468841553 201.984848022 202.826782227 197.744812012 181.930267334 199.489608765 199.838897705 199.369445801 196.66468811 195 190.671340942 184.611236572 190.768798828 189.253234863 185.744812012 179.540344238 169.754226685 169.179641724 166.489608765 166.744812012 161.753692627 157.744812012 157.091674805 156.611053467 147.970443726 142.654708862 147.315811157 150.264221191 152.518417358 150.389678955 157.513275146 163.574264526 170.567581177 173.794784546 177.401611328 180.28288269 187.520111084 188.644470215 191 195.224136353 194 196.255187988 199 205.701797485 204.319625854 210 207.411834717 211.149978638 215.726593018 205.002716064 197.918685913 199.113723755 199.894210815 202.323577881 204.239440918 202.944961548 202.744812012 199.744812012 192.985748291 193.744812012 191.510391235 195.941650391 196.744812012 193.704910278 192.744812012 196.074020386 191.93989563 190.5103302 194.450180054 197.87852478 197.299819946 204.354782104 212.028945923 217.744812012 210.754867554 211.418960571 213.66809082 208.812469482 204.769638062 198.030090332 204.253173828 204.25944519 200.015365601 197.864135742 200.744812012 196.255187988 189.744812012 192.57989502 184.077484131 185.047958374 182.83807373 180.744812012 183.198654175 185.160446167 184.797180176 184.572601318 181.020782471 181.459716797 186.539581299 191.326065063 182.781433105 195.753982544 202.747299194 208.97505188 211.023544312 213.451324463 213.810546875 213.953353882 211.079086304 212 211.602813721 206.049957275 205.160934448 202.712768555 201.744812012 202.277618408 197.870391846 197.744812012 200.047058105 201 204.966293335 208.615203857 207.490020752 206.998184204 211.475845337 214.255187988 215 216.295822144 211.316421509 214.3230896 219.159851074 222.331176758 219 218.904495239 220.744812012 220.050186157 204.771881104 206.147125244 228.533508301 219.598114014 225.324890137 203.226455688 209.797149658 219.744812012 219.238525391 208.389556885 219.120407104 234.851028442 226.858688354 224.744812012 223.744812012 221.507949829 216.744812012 214.828155518 206.249908447 206.744812012 199.711639404 201.933380127 207.827575684 204.144363403 201 197.427078247 199.190856934 201.744812012 205.743621826 207.249710083 202.590774536 202.704544067 188.658950806 192.850708008 187.489608765 185.444259644 193.624557495 196.873947144 194.255187988 193.159286499 190.113983154 187.147888184 182.865570068 169.874404907 168.094345093 183.255187988 183.287582397 183.744812012 183.749664307 180.938034058 179.375900269 178.743835449 176.007247925 177 178.744812012 179.930786133 181 181.744812012 181
159.925064087 162.734741211 166.087020874 173.139465332 172.973724365 183.645462036 185.909194946 187.213699341 190.939682007 204.292175293 217.384109497 223.146408081 235.744186401 252.628112793 268.170288086 306.388397217 382.196105957 386.957183838 268.830993652 242.854888916 227.509887695 215.27645874 205.261611938 197.963897705 197.260787964 191.567428589 193.811920166 197.885940552 204.892684937 212.319152832 214.323303223 210.996948242 219.370697021 225.172332764 217.938018799 209.985733032 207.380691528 206 207.071533203 215.957778931 214.131240845 213.928466797 216.067321777 214.263656616 217.002243042 213.751617432 218.048294067 218.025924683 217.481994629 228.150772095 227.783554077 229.724502563 234.451080322 237.964233398 248.891586304 259.889129639 265 265.175048828 265.34753418 258.309844971 254.655303955 245.943588257 236.971511841 232.484344482 226.009765625 223.035369873 221.973205566 219.522171021 218.071533203 221.071533203 223.025100708 217.575881958 220.107315063 216.996994019 215.417297363 209.657424927 199.450073242 207.839904785 219.227630615 216.01234436 217.768310547 213.315475464 214.738296509 215.949737549 218.964233398 216.091125488 220 220.035766602 213.047225952 207.557296753 204.535614014 181.68586731 205.095123291 200.630950928 193.181091309 180.858734131 191.071533203 188.368682861 187.084747314 189.175262451 193.035766602 192.964233398 194.035766602 190.939880371 183.733917236 175.482803345 177.751434326 167.023574829 161.204544067 157 154.32623291 155.140884399 154.010604858 153 149.00642395 142.143081665 148.048080444 145.534484863 140.801071167 141.205932617 150.608383179 155.630111694 162.133514404 167.970565796 168.898239136 175.010696411 181.969711304 182.008041382 185.49508667 189.928466797 192.025482178 193.32421875 200.016662598 200.928466797 206 205.283859253 209.979202271 214.085113525 215.898544312 225.747299194 196.158050537 191.113082886 197.4168396 205.877868652 204.640655518 202.069335938 198.428924561 195.035766602 194.723892212 188.014251709 196.477844238 192.035766602 188.48487854 189.034576416 191.658584595 193.407272339 198.789535522 198.068649292 188.661590576 189 193.030990601 191.035766602 192.986053467 203.708679199 208.035766602 208.357528687 206 201.688598633 194.070144653 193.314437866 195.533462524 198.782592773 195.044769287 195.547851562 189.551467896 193.205718994 193.056152344 195.306640625 186.775436401 182.964233398 181.964233398 178.611816406 180.022445679 183.253372192 187.854309082 175.608047485 174.071533203 181.099075317 180.837219238 186.076324463 192.206176758 186.051040649 192.299957275 196.525497437 197.833053589 203.100891113 209.459289551 209.480407715 214.781448364 211.732620239 211.741256714 204.624389648 206.486114502 207.009048462 195.382507324 198.482040405 196.18572998 196.796432495 195.892684937 195.928466797 201.040374756 203.97215271 206 205.682800293 205.113632202 207.035766602 210.964233398 213.771743774 213.088378906 216.184661865 209.265136719 217.840148926 219.166259766 216.328125 216.396621704 217.851852417 226.643371582 212.033691406 216.868606567 217.937072754 216.641860962 218.068588257 217.136291504 195.159393311 219.908203125 215.981887817 210.769226074 214.911010742 222.317214966 220.64125061 220.035766602 215.0027771 215.37512207 211.44178772 207.867980957 205.01763916 196.839538574 198.094741821 192.304107666 201.166259766 203 195.767700195 189.048187256 191.56022644 193.608322144 195.035766602 202.076828003 204.742202759 206.510726929 195.546401978 186.090118408 182.61164856 187.46937561 178.071533203 190.870986938 191.094345093 190.398178101 187.06338501 183.030487061 183.583786011 181.024017334 174.9947052 175.993011475 173.523361206 176.790618896 180.124313354 179.730102539 176.018051147 177.035766602 174.908401489 175.366439819 175.467590332 180.742477417 176.817886353 178 176.071533203
159.651473999 160.421524048 163.164627075 162.913803101 173.934936523 183.393844604 186.771682739 195.532821655 201 201.571884155 209.808441162 221.376342773 225.453231812 233.78817749 243.672042847 282.105072021 291.5078125 279.496948242 253.411804199 244.05682373 226.150146484 216.793548584 206.784103394 201.340179443 196.579147339 195.67326355 196.447692871 202.308517456 214.975509644 216.67326355 219.699295044 223.701202393 229.878814697 231.091171265 233.67326355 226.265914917 210.443099976 205.653457642 206 213.301895142 211.230987549 210.622573853 214.707244873 210.67326355 211.336425781 212.82069397 213.67326355 213.858657837 215.015151978 219.808532715 223.142654419 232.778747559 234.32673645 234.569961548 241.165115356 245.784576416 249.34803772 254.32673645 249.411880493 253.798233032 236.052368164 238.385238647 239.463638306 234.498535156 227.094573975 219.684310913 216.831130981 217.512695312 216.805252075 214.023803711 213.32673645 215.37713623 210.67326355 210.242843628 214.767211914 211.545059204 204.258895874 191.372253418 211.933517456 214.232223511 221.756317139 220.357635498 219.559310913 219.838348389 224.578155518 218.553024292 218.324798584 218.336669922 211.011886597 207.784790039 201.862350464 195.855545044 178.308105469 193.67326355 188.278060913 178.500839233 178.821258545 184.773925781 181.07800293 179.434310913 183.896118164 188.67326355 185.894805908 185.38684082 184.528488159 175.429229736 168.563766479 162.335250854 159.249221802 156.670837402 153.520401001 152.6769104 154 148.607879639 148 141.835418701 149.344161987 143.083312988 138.194625854 138.32673645 146.736328125 151.233291626 156.588623047 160.149505615 165.509994507 167.480575562 174.338882446 176.755508423 183.494491577 187.747695923 190.649902344 195.816772461 201.686264038 201.081497192 202.692352295 208.556152344 212.163757324 217.448898315 224.221511841 218.874664307 186.071807861 187.89163208 193.60357666 196.4894104 198.894271851 195.631713867 195.526885986 194.462020874 189.045150757 189.3409729 192.732574463 194.306930542 189.747970581 186.022369385 185.275924683 191.625015259 189.32673645 188.026367188 191.114730835 187.277694702 188.416763306 192.086288452 198.745132446 197.765625 195.739715576 205.269348145 199.110748291 195.67326355 192.608383179 191.880554199 192.653244019 192.400283813 189 185.803405762 186.32673645 183.532440186 188.232772827 188.549560547 185.527679443 185 179.137481689 181.287979126 181.627349854 178.925415039 179.101715088 183.344451904 173.67326355 173.369354248 177.083099365 180.32673645 190.188781738 192.678756714 194.834365845 196.326171875 202.171722412 201.61151123 206.048660278 208.653457642 211.242492676 212.079086304 205.340957642 200.397186279 200.191421509 199.612121582 195.976669312 196.787536621 199.100219727 194.021316528 196.913665771 199.371017456 201.286346436 200.67326355 204.812698364 200.398681641 199.988143921 207.31111145 206.153289795 215.68838501 213.32673645 209.662963867 210.937393188 215.107620239 216.428756714 214.911056519 215.374252319 214.439117432 214.149490356 212.688308716 191.812988281 211.064910889 210.456512451 211.635635376 188.589828491 215.023147583 218.573547363 218.627990723 199.935653687 211.296707153 211.046508789 212.026290894 213.653457642 208.429534912 205.653457642 206.595214844 204.863082886 202.798217773 201.460784912 186.641723633 187.624298096 195.941970825 192.653457642 188.426010132 182.971740723 184.035003662 190.651077271 189.653457642 197.001800537 200.67326355 201.345825195 198.140655518 195.362380981 195.435821533 191.241577148 191.052749634 176.78868103 191.874450684 190.32673645 186.809280396 183.406494141 179.197097778 176.778915405 172.540237427 162.067550659 169.24118042 174.346542358 173.320510864 172 172.32673645 169.766555786 171.653457642 172.709716797 173.070220947 173.734039307 175.597381592 174.227401733 173.522644043
163.494415283 153.635192871 143.184570312 145.728942871 171.361450195 171.406463623 176.490570068 182.817001343 192.579055786 204.23979187 209.203979492 214.073226929 217.042068481 229.971878052 238.334121704 246.679534912 249.470779419 244.493453979 232.113525391 221.853088379 217.822647095 210 206.728683472 200.385910034 206.70451355 203 210.817306519 211.764602661 216 222.888397217 228.697174072 232.499526978 241.631820679 245.629684448 240.204101562 232.045257568 218.868652344 209.946731567 201.567382812 205.256851196 209.61769104 209.886901855 210.437271118 213.368652344 213.127944946 211.401794434 211 210.38230896 213.748641968 219.38230896 231.023300171 232.513763428 232 233.846557617 238.38230896 238.61769104 239 240.51171875 232.235397339 236.61769104 227 230.977630615 228.414337158 235.247421265 230.727081299 230.606643677 227.713592529 214.643066406 213.549102783 209.072845459 211.135162354 216.485839844 211.06803894 214.86428833 212.595870972 207.47467041 205.869491577 207.262710571 195.361846924 211.890472412 219.166091919 221.61769104 223.941619873 225.136520386 222.36869812 217.74836731 215.195678711 214.367721558 202.776504517 201.996109009 199.795227051 197.087585449 166.141403198 180.965026855 179.560958862 169.674484253 180.510879517 176.98638916 172.987136841 174.041122437 178.845718384 182.583847046 188.123092651 183.022979736 178.631546021 174.228225708 166.448135376 162.979537964 156.846054077 155 152.47744751 149.034820557 148.800964355 145.558547974 143.506774902 141 148.38230896 147.829742432 138.514419556 138.179367065 140.850280762 145.096679688 150 150.232940674 157.832138062 165.299041748 174.074356079 179.138793945 180.186004639 186.537704468 189 196.727844238 202.4659729 202.61769104 199.777359009 203.818984985 210.036209106 216.479064941 224.064987183 207.116485596 186.348526001 183.248413086 185.941619873 190.776184082 187.035522461 188.641281128 189.123641968 187.903076172 185.447769165 187.994552612 183 183 180.476455688 183.979476929 185 188.273666382 185.181182861 188.567855835 187.61769104 186.835494995 188.464904785 191.489547729 189.994476318 195.348114014 193 188.077423096 193 193.918334961 188.937271118 184.25680542 184.803100586 182.332183838 180.996673584 179 180.467575073 181.744766235 186.561538696 184.121582031 180 180.939498901 178.342697144 175.634506226 175.38230896 180.506912231 180.848907471 184.331970215 172 172.319000244 171.764602661 170.225036621 174.61769104 183.633544922 191.371673584 197 199.387451172 200.720901489 204.842102051 210.274658203 211 210.048858643 206.512130737 198.38230896 193.183654785 193.508865356 190.846969604 196.401672363 193.739120483 192 193.269241333 197.11555481 194.235397339 193 201.101043701 194.03012085 197.61769104 200.079788208 202 208.207305908 212.033691406 198.445983887 211.778915405 212.159851074 220.235397339 218.235397339 212.734191895 211.38230896 210 212.745910645 212 203.950927734 212.787200928 187.145599365 212.279312134 214.006668091 222.239852905 218.193557739 206.003707886 210.731765747 190.717407227 204 205.370437622 200.61769104 202.61769104 204.847549438 204.61769104 205.827270508 203 189.493667603 191.359024048 185.809555054 186 180.430007935 177.958023071 179.298248291 185.815826416 190.972091675 195.994506836 198.897796631 202.797683716 198.129043579 194.637939453 196.417907715 192 190.838562012 185.66418457 173.39390564 187.003234863 186 179.056533813 176 175.086471558 171.249282837 167.497024536 163.646347046 164.414916992 169.38230896 169.710525513 170 168.526504517 169.61769104 171.728668213 171.61769104 171.814025879 171.029006958 168.057815552 169.599624634
137.172012329 129.922836304 155.662155151 161.045089722 165.91003418 166.628768921 173.979202271 170.563095093 188.669128418 192.903320312 194.870864868 202.077468872 205.827362061 214.536773682 217.940490723 220.934738159 224.908660889 217.236663818 216.890090942 206 199.981277466 199.466827393 197.662124634 205.899215698 202.091339111 204.394363403 204.112060547 212.817321777 212.789916992 221.346908569 226.245300293 234.648300171 242.031723022 237.426544189 231.662612915 233.212158203 229.844924927 216.473999023 204.819778442 202.892181396 202 205.935684204 207.003097534 209.070526123 207.418899536 208.931350708 211.911117554 212.066192627 213.091339111 223 224.903091431 233.585830688 230.855255127 232.433105469 227.908660889 227.908660889 228.908660889 226.898971558 230.492980957 222.544082642 225.496932983 222.144515991 224.908660889 229.957504272 226.296417236 224.988952637 219.022903442 213.908660889 206.865890503 204.908660889 202.765808105 212.480026245 210.89239502 213.908660889 213.594482422 210 207.130508423 208.040008545 196.523574829 209.598480225 225.15020752 227.357635498 225.749786377 219.611206055 217.911911011 211.658187866 213.908660889 207.885818481 202 194.817321777 191 192.815979004 186.968017578 179.795791626 161.508636475 169.718231201 170.29296875 173 171.572952271 173.892425537 176.70552063 183.038009644 181.168701172 181.908660889 176.220184326 173.463623047 165.97492981 162.987350464 160.6822052 156.930831909 151.793685913 150 147 146.401123047 144.745483398 142.074768066 149.715759277 150 137.170623779 135.908660889 136 137.255172729 146.077941895 149.268569946 153.682739258 161.180389404 167.070968628 172.68397522 177.557891846 181.411819458 190.988769531 195.066482544 196.951217651 198 202.989456177 203.908660889 209.509857178 219.014312744 216.037368774 200.976394653 192.313598633 183.700271606 164.553787231 181.182678223 182.294021606 185.761245728 186.090530396 184.950866699 187.817321777 184 181.403900146 181.908660889 180.721786499 178.908660889 180.386428833 174.77684021 178 178.083969116 183.628677368 182.676681519 185.896438599 185.116455078 188.66569519 190.876861572 190.992126465 181 185.085067749 188.243484497 182.996459961 182.705947876 178.044296265 178.655471802 174.991317749 172.6381073 176.882156372 172.908660889 175.938720703 179.499298096 178.855697632 178.856216431 174.896377563 174.576553345 177.281311035 181.716659546 181.592681885 177.908660889 180.4112854 177 177.819580078 173.26184082 181.621398926 189.820205688 194.583389282 198.507888794 203.460494995 208.031616211 209.908660889 210.949279785 206.639678955 205.163208008 203.507507324 196.091339111 193.877044678 188 190.944137573 189 189.099365234 189.908660889 196.783676147 195.065658569 187.128036499 193.707397461 199.797927856 193.677154541 193 196.97543335 199 203.908660889 205.182678223 196.057800293 206.421707153 212.166213989 217.00932312 214.363891602 212.942840576 206.929702759 203.454345703 211.908660889 210.163757324 202.509567261 201.626846313 194.934707642 198.512878418 204.254989624 216.839630127 220.767730713 219.182678223 213.880096436 197.539245605 195.943069458 197.074493408 197.077178955 201.060348511 203.601226807 200.863082886 201.102752686 197.386825562 194.059249878 195.074996948 191.253494263 172.170684814 180.541229248 176.740737915 183.837402344 186.33555603 190.091339111 192.994506836 194.267349243 196.470779419 195 194.908660889 189.377410889 188.807952881 189.938156128 193.091247559 183.182678223 171.624160767 178 176 171.03742981 169.755966187 167.939559937 162.926498413 161.634124756 159.678817749 165.019042969 166 165.413345337 163.675216675 166.908660889 167.908660889 170.766876221 168.482437134 167.763809204 167.969146729 167.945236206
122.829307556 156.383300781 158.121353149 165.192840576 170.588684082 174.336883545 171.676300049 176.962341309 175.824829102 186.815155029 189 195.726623535 197.201156616 202.256225586 200.600753784 200.807617188 203.124160767 207.5806427 200.617584229 198 192.650436401 188.626373291 192.399246216 187.201507568 194.699645996 200.296585083 194.979537964 200.792785645 211.339370728 217.238616943 219.035202026 225.313751221 233.069335938 237.46282959 230.17388916 234.667175293 226.590026855 215.308639526 201.983734131 198.199615479 199.55770874 200.059051514 206.573562622 204.136901855 207.621246338 207.849136353 207.183441162 212.14465332 210.370391846 213.361724854 218.623321533 219.753601074 222.814559937 233.925262451 221.2212677 220.073913574 219.840515137 221.809204102 219.875228882 224.582244873 223.74357605 225.187942505 220.1590271 222.678726196 220.054473877 216.385986328 214.00112915 212.814651489 206.600753784 200 205.600753784 211 211.021636963 208.800384521 209.261199951 204.399246216 202.294784546 191.605712891 190.177017212 212.145294189 219.216201782 216.34274292 208.246139526 208.476135254 215.764801025 208.991836548 199.175933838 201.149719238 197.432525635 187.892105103 183.335998535 179.196731567 181.199615479 179.520843506 178.815887451 160.579437256 157.413269043 168.210205078 170.369445801 168.485351562 184.337509155 177.416152954 177.877639771 173.951889038 175.403503418 174 171.800384521 159.974716187 154.850280762 150.217376709 148.800384521 146.027862549 149.800384521 147.205230713 145.620803833 144.718093872 152.068695068 150.393981934 146.668273926 147.129760742 135.591247559 133.869552612 136.399246216 144.106460571 151.663024902 155 159.977661133 166.174560547 168.523254395 175 183.179046631 191.727844238 188.878799438 192.755142212 195.329956055 202.151641846 214.135345459 227.11366272 219.588684082 198.860519409 174.471130371 177.731735229 179.399246216 182.253646851 179.876037598 178.473266602 180.640182495 183.76902771 182.779006958 175 173.646865845 173.199615479 176.15397644 175.206253052 173.553619385 171.445770264 171.981552124 176.264205933 178.657440186 180.19039917 183.93409729 182.701431274 185.609985352 182.626739502 182.468276978 189.024002075 185 185.699356079 177.976699829 176.023468018 173.727661133 174.202636719 169.800384521 166.854385376 166.906661987 167 172.45539856 176.144699097 176 179.746688843 171.868362427 171.126663208 172.572265625 172.977890015 176.69152832 175.248092651 184.484344482 181.14894104 169.322555542 177.291534424 182.621520996 194.578552246 196.950881958 198.697097778 203.614151001 210.350524902 210.434524536 205.110855103 201.309432983 201.215408325 199.141326904 194.399246216 188.729370117 189.499465942 188.67829895 187.269424438 195.006393433 189.825973511 192.616378784 185.056594849 184.808441162 190.667312622 190.670593262 188.756225586 191.991500854 198.99810791 199.293273926 199.834075928 201.38835144 203.610290527 201.024383545 212.504730225 212.297225952 210.490875244 210.573867798 196.554000854 214.650894165 214.130569458 213.264846802 211.186660767 195.984771729 204.390014648 202.990219116 211.017440796 224.009872437 223.306671143 228.614807129 208.114089966 188.832489014 187.762466431 192.199615479 193.106658936 197.199615479 197.000457764 200.143066406 197.22416687 196.199615479 194 192.874847412 187.640823364 183.199615479 174.489593506 174.432846069 172.641296387 180.378295898 187 190.991210938 192.732650757 196.858825684 192.990707397 189.968185425 190.08442688 188.576690674 185.03817749 188.820419312 183.489593506 176.823776245 168.062896729 168.369720459 162.691177368 164.262832642 165.840332031 164.960998535 156.823165894 162.280914307 162.003799438 162.442443848 162.19682312 160.479660034 162.222366333 162.199615479 164.289016724 165.619750977 167.123733521 163.277664185 165
128.970596313 143.175796509 159.499069214 166.249755859 167.448974609 171.135864258 169.216094971 164.282012939 168.90675354 175.509414673 180.375015259 186.754837036 186.490585327 191.483581543 191.552810669 196.189926147 201.842514038 201.5806427 192.490585327 187.981170654 183.510452271 183 185.371200562 191.490585327 187 195.747695923 204 203.962509155 200 210.653244019 213.352752686 223.958053589 223.471755981 215.264785767 223.437896729 219.357635498 219.990768433 214.629074097 209.978881836 199.490585327 201.528244019 204.044036865 201.52456665 204.849105835 202.240264893 205 209.005340576 209 213.055358887 210.098571777 214.459533691 212.167770386 218 224.056442261 218.981170654 216.049499512 213.367843628 210.946014404 212.490585327 216.509414673 219.163208008 212.970199585 214.693054199 214.490585327 217.19883728 207.473907471 203.231994629 201.738830566 199.154541016 198.982131958 206.848052979 210.224060059 212.403274536 211.408279419 206.647735596 201.309524536 185.533325195 194.085739136 207.181488037 210.666290283 207.91696167 203.087722778 193.490585327 203.490585327 203.419433594 197.490585327 190.251098633 198.032958984 185.017715454 181.356277466 175.490585327 175 174.803100586 176.321228027 174.490585327 169.629760742 154.348175049 167.309707642 166.169372559 169.071609497 172.981170654 171.609313965 166.490585327 169.490585327 167.509414673 170.22744751 168.08140564 163.509414673 155.63168335 154.509414673 152.884338379 147.017745972 146 152.156906128 146.820419312 147.38520813 147.989944458 149.903396606 149.442123413 148.639175415 142.391616821 140.490585327 134.872238159 130.490585327 140.54208374 147.280212402 154.074249268 156.205856323 161.75213623 171.742156982 182.989715576 181.490585327 182.975387573 189.978378296 190 197.666213989 207.909103394 213.158462524 201.032791138 189.360168457 177.868026733 172.835205078 174.262985229 173.211181641 172.993911743 172.569961548 175.098190308 178 181 178 172.864349365 172.01890564 172.116470337 170.523803711 171.490585327 171.424209595 173.401702881 173.34803772 173.831954956 178.395584106 182.354354858 180.19102478 179.808654785 181.338638306 181.023483276 178.404434204 175.777130127 177.490585327 181.510345459 176.218887329 173.232284546 171 164.509414673 163.137817383 166.9581604 166 167.434432983 174.172561646 172.715515137 174.158248901 174 167.676773071 170.018829346 168.073181152 176.339492798 179.210372925 173.999755859 171.440689087 175.003738403 177.030166626 189.923370361 194.008071899 196.879302979 200.484069824 201.230239868 210.364105225 204.653396606 200.773483276 194 196.861785889 199 191.696228027 185.066375732 192.873443604 194.336837769 192.368545532 190.463012695 187.490585327 189.195007324 186.644546509 180.490585327 187.538192749 189.237121582 178.148757935 192.48348999 190.118179321 190.002578735 188.936584473 183.882965088 204.354187012 210.490585327 209.840148926 204.185211182 200.39175415 193.804611206 204.093551636 216.433258057 213.39251709 206.032348633 174.835205078 202.000045776 209.95803833 212.372390747 217 214.733261108 222.235794067 209.273208618 205.026489258 189.167556763 184.784988403 192 191.490585327 189.654251099 193.705047607 194.439666748 192.365631104 189.197052002 189.330444336 191.355575562 185.08782959 182.28817749 178.690429688 171.425460815 165.617294312 180.536834717 178.11177063 181.490585327 186.863800049 190.259628296 191.791091919 187.570510864 183.839630127 182.490585327 180.920791626 178.899581909 180.490585327 175.624160767 168.944076538 168.556335449 166.509414673 163.329483032 160.525726318 158.881652832 160.723495483 156.385147095 159.009338379 160 160.490585327 157.085647583 160.013946533 161.567306519 161.20930481 164.0912323 163.924118042 162.172058105 164
128.969818115 138.468826294 154.320999146 161.056655884 162 160.553909302 159.976898193 160.190612793 162.04888916 167.832199097 175.044494629 178.966567993 178.220046997 176.918762207 190.218460083 191.022796631 189.563095093 190.143737793 181.244308472 177.781539917 180.781539917 176.518676758 183.165588379 184.444290161 192.966033936 190.514282227 195.436904907 198.970291138 199.152938843 201.027770996 206.394836426 210.781539917 216.291625977 213.90612793 203.924682617 215.018417358 216.472976685 209.82661438 201.70010376 201.180419922 207.11541748 206.563095093 202.218460083 203.772109985 206.489761353 207.272705078 209.218460083 208.278610229 212.957092285 210.799087524 206.952362061 210.677185059 214.702896118 220.934997559 214 212.862442017 210.264312744 210 211.965942383 212.363800049 215.250396729 213.781539917 208.218460083 206.734283447 204.781539917 201.552047729 201.585525513 196.619140625 196.725311279 199.526672363 206.781539917 203.877639771 207.385116577 201.865432739 199 199.781539917 200.277877808 182.764968872 196.386398315 200.051116943 195.461914062 192.960372925 196.996444702 197.781539917 194.781539917 188.830978394 180.186752319 182.476959229 177.574981689 170.055297852 165.446090698 166.17401123 166.821929932 168.884307861 169.710464478 168.844955444 159.359069824 170.27494812 168.849014282 164.302536011 168.781539917 163.781539917 161.585021973 162.953018188 164.781539917 162.680267334 164.725494385 161.974716187 157.194778442 151.803726196 148.950393677 148.957565308 146 146 148.961120605 152.064315796 153.781539917 152.473632812 148.436904907 146.708480835 145.781539917 143.577789307 140.284606934 130.492950439 133.563095093 140.299041748 150.600265503 147.169372559 159.239471436 167.651184082 182.781539917 179.781539917 175.033752441 183 187.7237854 195.461929321 197.181671143 187.093154907 180.503845215 174.769805908 166.410507202 164.218353271 172 171.781539917 170.781539917 168.938293457 170.937973022 172.781539917 170.666229248 169 168.588012695 172 168.989807129 169.218460083 166 167 168.181182861 172.200820923 175.781539917 178.132034302 180.592300415 181.100158691 181.258270264 183.651885986 181.781539917 175.218460083 176 172.300643921 175 171.786178589 171.112518311 166.163146973 162.218460083 168.566131592 165.064849854 170.160766602 172.274612427 172.248550415 170.814651489 165.192810059 167.126251221 170.416061401 177.154190063 179.670761108 176.151092529 175.88583374 168.131195068 171.795379639 173 179.539581299 190.119918823 192.019302368 194.753982544 199.507888794 201.769760132 203.756835938 203.845657349 200.652481079 194.995742798 199.201171875 192.296615601 190.424087524 188.544830322 190.098907471 187.696426392 193 187 183.218460083 185.687347412 186.461532593 177.959625244 180.95161438 182.476089478 179.52684021 185.788635254 172.319458008 177.532073975 194.633071899 201 205.465118408 207.578292847 203.183532715 188.948898315 206.008804321 210.600418091 211.781539917 211.814208984 199.323928833 190.946472168 190.606887817 196.584564209 197.462860107 201.441375732 205.539642334 195.920639038 209.740325928 206.222671509 192.503051758 184.545608521 184.905944824 188.597167969 187.201522827 188.734771729 193.683563232 185.841369629 181.781539917 182.479232788 181.056106567 184.178894043 183.684463501 181.434280396 178.696151733 172.967193604 168.611129761 173.947174072 180.256378174 180.99331665 183.514190674 189.310775757 188.954360962 186.094345093 181 181.781539917 178.838562012 174.056549072 173.498397827 169.269348145 167 167.263473511 161.320236206 160.256637573 159.037445068 157.152679443 157.205749512 157.937545776 153.019042969 162.563095093 155.394439697 157.817550659 158 158.163452148 160.120620728 160.145355225 159.857437134 161.662246704 159.687088013
138.430358887 147.156982422 153.32800293 156.15637207 156.726135254 152.453903198 152.940444946 153.670120239 166.541320801 169.844116211 164.788864136 168.558486938 168.574615479 171.528640747 172.622894287 178.234268188 179.746109009 173.828582764 174.971160889 173.186340332 185.677947998 182.038665771 177.475357056 187.226287842 186.199234009 186 193.080444336 197.143035889 199.166763306 199.529983521 201.012786865 199.303024292 200.554946899 199.479125977 194.210769653 201.287612915 202.217529297 196.047622681 199.003036499 203.27696228 204.959564209 203.631637573 203.958999634 204.944015503 208.819473267 206.018005371 206.073486328 212.579620361 208.969909668 208.927490234 208.927490234 213.23274231 214.054473877 215.080932617 215.891586304 208.515304565 205.486190796 205.829193115 208.445495605 205.448043823 206.702850342 205.203536987 206.159759521 206.431488037 206.220184326 199.072509766 196.713043213 195.08430481 193.774551392 195.997695923 195.298294067 195.113128662 197.788223267 198.08996582 197 202 204.121047974 199.203857422 195.393218994 194.904998779 186.775115967 179.08505249 177.881240845 185.471847534 185.180603027 179.371307373 171.51184082 171.536300659 167.084396362 162.402496338 156.641799927 149.34753418 150.123016357 159.095794678 164.489425659 166.277587891 166.683395386 145.38772583 164.918457031 158.84954834 163.866165161 159.927490234 163.678024292 157.145019531 158.130386353 156.5025177 160.87487793 159.986434937 152.480377197 149.563034058 149 148.892669678 147.050994873 146.072509766 147.145019531 150.072509766 146.778259277 149.043945312 147.135437012 150.38571167 151.739135742 141.820770264 140.138885498 138.401245117 132.59274292 136.380554199 141.075210571 139.470962524 152.486557007 161 167.061477661 162.402908325 173.543426514 178.204116821 183.145019531 187.247116089 176.623657227 169.988372803 162.18536377 162.118408203 150.376571655 165.870819092 168.080184937 166.158493042 166.072509766 165.072509766 163.756362915 166.537979126 176.578872681 170.856018066 165.945449829 168.109451294 167.916381836 168.002410889 167.072509766 166.895370483 171.253692627 170.991821289 176.512420654 173.439407349 177 177.927490234 179.044235229 179.322875977 175 176.927490234 170.582504272 168.601287842 172.888717651 168.486328125 167.027908325 173.143951416 161.153076172 162.801956177 166.433670044 171.130096436 173.746749878 170.367477417 164.507385254 163.902786255 163.065002441 169.223022461 176.099533081 177.110778809 172.436233521 169.574417114 170.504455566 170.072509766 176.927490234 179.960876465 183.350219727 191.959182739 194.072509766 195.109344482 195.072509766 197.970672607 202.987380981 196.040267944 195.268539429 193.628341675 188.975280762 190.412094116 187.062698364 189.737594604 197.5390625 200 197.92489624 194.259155273 193.363372803 183.842773438 182.03213501 172.350448608 171.551696777 183.218475342 169.941665649 177.94367981 191.507675171 207.621932983 201.101196289 200.560333252 197.072509766 194.057678223 178.70552063 209.581420898 212.507873535 209.951980591 206.877151489 198.793319702 178.184341431 174.111740112 191.897827148 180.009841919 191.735641479 186.961120605 192.321517944 190.578796387 187.681335449 165.205062866 182.614440918 188.215011597 184.059143066 183.139404297 185.757766724 184.630142212 178.873016357 175.237594604 173.431289673 173.1665802 175.072509766 181.432250977 177.104003906 179.072509766 173.885513306 164.090805054 172.55581665 177.946075439 178.005096436 179.927490234 180.509155273 185.208908081 188.103942871 178.314819336 175.576690674 173 171.158370972 165.289779663 165.072509766 164.178222656 163.013595581 157.52507019 157.522094727 158.279220581 155.014160156 156.470275879 158.052139282 157.015380859 156.684661865 153.386199951 157.250366211 156.074569702 155.709716797 155.527923584 158.927490234 160.002120972 159.433792114 159.057922363
135.582733154 137.086837769 140.420471191 145.959609985 148.75163269 138.107666016 147.726516724 159.326187134 166.022735596 163.897262573 153.162857056 150.933990479 156.707336426 159.878952026 170.22354126 168.622573853 166.569458008 172.102661133 177.217468262 180.600296021 186.552505493 186.169708252 189.425933838 189.627075195 186.859954834 198.909576416 195.857513428 196.688919067 192.318054199 192.561752319 188.176376343 193 193.016113281 192.802871704 193 192.854110718 194.780029297 200.343307495 202.051849365 205.027053833 202.991531372 200.744064331 205.055603027 203.1355896 206 204 205 206.538742065 207.173751831 208.799087524 204.916885376 211.157989502 213.948165894 213.153442383 215.312469482 204.370285034 200.731323242 200 200.900772095 198.265914917 202.320373535 205.058517456 202.856384277 205.511703491 200.62789917 196.629501343 193.61428833 189.549819946 189.774551392 189.613342285 194.471893311 190.083496094 184.708740234 183.583129883 186.017715454 192.506088257 198.363479614 201 196.64352417 192.20098877 188.886764526 186.483123779 188 174.175292969 167.251998901 175.363479614 169.712966919 169.363479614 163.644088745 155.627441406 157.72694397 146.331420898 164.175918579 161.957748413 162.583084106 159.901306152 158.645111084 141.363479614 149.458374023 161 159.881240845 152.363479614 151.678024292 152.303359985 153.017089844 150.068359375 156.363479614 155.350830078 149.090591431 144.311203003 145.636520386 142.385635376 145.447677612 140.355529785 139.820419312 144.947616577 146.761611938 147.575515747 146.048019409 147.320220947 146.913955688 143.415969849 138.417358398 140.983032227 136.892974854 141 138.562164307 130 141.496322632 150.978530884 148.340087891 161.910476685 170.93196106 175.129928589 180.363479614 176.002716064 166.363479614 160.900283813 152.266983032 159.503097534 162.363479614 164.363479614 164.879638672 160.849319458 162.363479614 166.636520386 166.236221313 168 170 173.009063721 169.363479614 163.363479614 165.40788269 162.351394653 166.256210327 165.717987061 163.817703247 165.970672607 170.342559814 170.363479614 170.497192383 173.235321045 175 180.288421631 177.245880127 171.363479614 175.557098389 169.363479614 166.439804077 165.41343689 165.308685303 170.271453857 167.363479614 161.172210693 167.612960815 171.363479614 172.399215698 168.843017578 160.630889893 160.669433594 163.532913208 167.403884888 172.736114502 181.040267944 176.151092529 171.412948608 172.688644409 165.94241333 176.72694397 181.539581299 188.262527466 192.353393555 193.363479614 193.050231934 194.216918945 198.5962677 191.843780518 188.847625732 194.455825806 194.27305603 189.479431152 190.636520386 193.815505981 197.746887207 205.272186279 201.636520386 194.548675537 189.11076355 187.277450562 184.192382812 179.636520386 170.221481323 166.483352661 167.525650024 172.543533325 187.025177002 189.549301147 199.670333862 203.453887939 202.452331543 192.641143799 189.098892212 183.457962036 184.413711548 190.14680481 213.54737854 203.476882935 198.26184082 183.738265991 171.013412476 180.877227783 170.580612183 189.523895264 178.328582764 174.599990845 178.184020996 176.214050293 168.000350952 179.928421021 179.931564331 179.653823853 181.66468811 180 180.109634399 175.766067505 170.045410156 167.27305603 167.034332275 172.056930542 176.464111328 176.363479614 177.746963501 169.502380371 174.139968872 176.670120239 177.056091309 182.359985352 181.53364563 181.636520386 181.154556274 183.363479614 178.200393677 169.269454956 166.363479614 165.399978638 164.998809814 161.226867676 160.113983154 161 155.182983398 153.935974121 158.594192505 154.43447876 152.90625 157.663925171 149.337509155 150.481964111 152.183441162 154.79069519 154.098175049 153.759277344 153 158.228271484 157.027587891 158.570022583 155.981796265
111.098327637 131.756088257 131.677062988 142.677627563 151.34034729 152.399185181 153.654434204 160.845245361 162.978378296 162.542327881 155.451416016 151.502593994 159.435714722 168.397415161 175.711807251 176.345565796 178.708862305 176.384918213 179.210403442 180.711349487 184 184.838684082 191.037567139 189.302688599 191.654434204 185.972305298 184.654434204 189.282653809 189.700119019 189.632369995 190.169189453 189 191.343780518 192.736343384 195.213272095 195.954055786 196.654434204 194 195.427001953 200.11807251 199.903274536 200.460830688 202.620452881 201.117675781 202.189727783 204.508117676 202.01348877 201.819793701 200.840087891 200.868515015 204.715393066 211.345565796 211.760879517 211.654434204 209 202.217605591 200.654434204 194.760421753 192.756454468 199.783447266 203.320373535 206.058517456 208.478652954 203.654434204 199.475830078 197.658248901 193.835861206 187.868301392 191.077911377 183.667022705 187.654434204 182.235610962 183.629623413 187.345565796 186.345748901 191.256790161 192.569030762 190.568466187 189.047653198 188.653778076 187.654434204 191.270751953 180.440689087 177.194656372 173.846694946 170.658828735 164.823120117 167.404464722 162.703018188 155.677230835 155.029586792 157.633712769 161 158.333221436 158.345565796 153.153823853 152.691345215 139.826339722 154.587341309 159.654434204 157.654434204 150.654434204 148.765701294 148.230194092 142.724151611 145.887405396 144.928955078 148.641784668 144.903656006 143.022171021 142.921539307 142.654434204 136 141.461425781 139.297103882 144.971557617 146 149.481704712 148 149 147.181381226 144.225814819 149.20552063 127.177223206 127 134.598083496 133.308380127 131.775314331 136.009552002 144.070663452 152.637420654 157.654434204 162.959396362 168.921600342 169.021057129 166.654434204 156.308868408 147.830337524 152.654434204 152.675964355 152.654434204 157.037734985 157.052764893 162.585449219 168.978012085 168.694824219 166.85458374 163 167.0259552 166.645111084 168.16204834 165.169509888 156.771347046 158.654434204 158.820663452 161.44303894 161.835617065 162.626556396 166.115371704 164.791137695 163.654434204 168.30128479 170.744750977 175.92149353 169.684234619 172.114929199 167.783050537 168.457687378 162.332168579 162.50843811 165.654434204 165.488739014 163.308868408 164.308868408 163.880859375 163.994766235 167.948028564 162.208129883 159.200393677 164.158248901 166.449188232 169.106369019 170 176.816726685 175.70664978 172.270248413 164.791275024 175.345565796 182 183.460418701 188.932144165 188.654434204 187.739456177 190.507888794 192 193 190.755859375 185.401702881 185 187.681762695 185.463378906 191.791687012 194.56942749 202 213.556900024 219.077529907 211.955184937 203.405700684 195.93208313 183.593307495 175.382263184 174.691131592 166 166.654434204 168.304229736 173.48487854 175.778045654 177.444549561 182.6355896 185.203582764 185.53503418 173.149032593 173.206848145 185.853317261 192.971313477 198.887619019 192.860412598 188.223495483 187.195953369 184.632003784 179.851394653 165.954330444 166.359161377 170.619537354 172.988952637 168.654434204 159.770477295 169.246231079 173.7552948 180.04095459 184.361999512 175.050704956 172.876525879 173.654434204 172.863082886 168.043182373 164.226364136 162.424530029 169.685348511 172.767990112 172.458938599 174.308868408 168.874069214 164.19644165 172.820907593 176.256378174 176.349151611 176.907608032 178.470779419 177.654434204 176.654434204 174.860473633 169.07774353 168 164.934280396 163 157.278594971 156.383468628 155.160980225 156.858398438 158.577651978 150.743927002 150.345565796 150.457214355 149.589782715 147.677963257 148.570526123 149.495315552 153.031448364 152.018600464 149.764984131 150.206588745 149.467269897 152.578552246 153.316680908 151.091506958
125.109199524 130.419296265 146.437698364 140.246780396 142.20741272 147.246704102 129.662582397 135.87437439 137.219528198 155.24772644 148.318984985 163.498153687 167.579574585 169.406188965 174.950790405 174.792114258 178.332641602 172.945404053 178.735824585 174.943084717 181.535491943 188.916290283 182.619491577 184.008926392 182.013778687 190.190322876 192.01222229 192.961975098 188.623657227 191.969329834 188.955032349 189.104537964 191.652648926 192.021331787 193.176467896 193.826965332 191.427871704 195.765884399 194.081451416 197.115966797 197.581863403 199.945404053 199.858673096 197.957839966 198.564849854 200.642425537 202 202.945404053 201.029327393 208.054595947 205.935714722 208.017623901 209.890792847 207.917907715 202.102508545 203.740570068 197.632156372 193.850997925 191.798019409 194.055282593 195.248291016 198.945404053 199.901901245 196.930435181 193 194.934951782 194.904495239 189.054595947 191.987686157 187.981826782 184 170.975982666 183.054595947 186.083892822 185 184.054595947 184.691497803 180.897964478 183.552185059 178 180.945404053 181.766571045 177.38609314 172.649490356 169.943450928 158.056594849 165.050338745 157.695419312 161 139.791366577 138.506378174 142.027648926 155.712738037 147.65486145 151.39414978 145.155044556 142.530654907 147.208023071 152.280410767 148.951278687 150.807952881 149.306945801 141.64100647 142.888565063 144.190734863 143.452484131 144.054595947 143.932754517 140.945404053 139.973312378 139.945404053 137 133.648712158 133.06098938 136.945404053 143.785308838 143.655838013 147 147.054595947 144.747573853 147.92401123 145.327590942 148.341323853 126.167541504 129.384490967 138.299041748 143.912277222 142.066864014 143.082641602 146.054595947 150.109207153 144.702957153 154.941680908 158.807037354 162.003158569 155.41859436 141.355834961 158.054595947 160.005752563 158.401641846 154.721832275 160.90272522 161.054595947 165.369277954 164.305908203 162.112945557 164.75617981 156.537979126 163.276107788 162 164.193023682 161.945404053 162.771347046 158.968597412 157.016113281 159.41885376 162.421646118 165 165.378448486 163.208847046 163 168.128158569 169.390014648 171.329101562 170.977050781 172.945404053 168.945404053 166 161 161.722305298 161.026473999 159 160.991790771 164.404296875 153.528884888 155.216949463 160.051528931 160.355255127 161.397171021 160.795791626 165.945404053 165.619827271 164.172531128 162.493240356 167.067276001 164.750854492 174.325180054 176.117919922 176.342514038 176.484985352 180.262542725 183.984161377 186.603607178 186.917663574 184.945404053 185.998275757 185.332061768 186.99395752 182 181.054595947 186.372695923 192.397186279 195.237121582 204.873443604 213.945404053 222.276016235 371.449188232 335.762145996 192.707977295 188.98348999 179.852630615 177.209396362 167.509750366 164.799819946 165.945785522 165.039916992 166.440200806 166.360015869 173.678451538 172.207214355 173.890792847 170 165.253067017 173.546783447 183.584686279 186.672180176 171.290817261 174.192947388 167.017089844 166 165.781539917 167.052810669 156.911514282 159.839416504 151.890792847 160.548309326 167 171 170.961334229 167.367279053 172.761016846 171.050003052 166.320831299 167.087127686 167.007476807 168.118133545 168.634292603 161.684112549 165.806228638 169.772979736 169.434280396 159.95022583 153.03968811 170.572235107 172.489944458 172.743621826 171.059783936 174.945404053 176.945404053 174.945404053 171.002883911 168.945404053 167.890792847 164.216049194 163 160.362289429 157.945404053 156.72366333 154.147888184 155.612625122 155.63494873 152.008285522 152 153.623672485 150.093856812 149.125717163 145.743927002 146.018188477 148.041854858 148.890106201 146.693862915 147.054595947 145.295181274 149.873657227 151.625366211 149.676086426
